# .PCD v0.7 - Point Cloud Data file format
VERSION 0.7
FIELDS x y z intensity ring
SIZE 4 4 4 4 2
TYPE F F F F U
COUNT 1 1 1 1 1
WIDTH 1223
HEIGHT 1
VIEWPOINT 0 0 0 1 0 0 0
POINTS 1223
DATA ascii
4.763082 0.50943261 -0.082157083 47 48
4.7221651 0.64368391 -0.22222419 63 31
4.7014756 0.48961818 -0.47566232 95 14
4.7028298 0.4889285 -0.40886635 66 18
4.7080784 0.48863947 -0.34413269 56 22
4.7272973 0.49061877 -0.27940005 53 26
4.7457123 0.49167812 -0.21419477 55 32
4.7532854 0.49161837 -0.14821696 69 40
4.7648311 0.49280334 -0.082157083 48 48
4.7293339 0.62785101 -0.22245885 58 31
4.6883068 0.47172186 -0.47414911 67 14
4.7045078 0.47250959 -0.40886635 55 18
4.7097559 0.47220221 -0.34413269 43 22
4.7240148 0.47362044 -0.27910438 54 26
4.7424288 0.47461602 -0.21396883 52 32
4.749999 0.47453037 -0.14806077 67 40
4.7615466 0.47567487 -0.082070686 40 48
4.7722607 0.47589552 -0.015785396 33 56
4.7265434 0.61070156 -0.22222419 38 31
4.7047796 0.45678407 -0.47566232 40 14
4.7061281 0.45608491 -0.40886635 56 18
4.7064114 0.45528302 -0.34376737 51 22
4.7206702 0.456651 -0.27880871 51 26
4.7440567 0.45805895 -0.21396883 42 32
4.7516265 0.4579469 -0.14806077 67 40
4.7631783 0.45905104 -0.082070686 39 48
4.7738924 0.4592343 -0.015785396 43 56
4.7286468 0.59419912 -0.22222419 33 31
4.7461443 0.59638786 -0.15665919 65 39
4.6914859 0.43898007 -0.47414911 40 14
4.7027311 0.43919536 -0.40843228 43 18
4.7079716 0.4388518 -0.34376737 36 22
4.7222357 0.44016999 -0.27880871 39 26
4.7406535 0.44103757 -0.2137429 31 32
4.7482195 0.44089967 -0.14790459 59 40
4.7647519 0.44242167 -0.082070686 40 48
4.7704878 0.44211003 -0.015768817 43 56
4.7306914 0.57768941 -0.22222419 32 31
4.7481966 0.57981706 -0.15665919 71 39
4.6929898 0.42260104 -0.47414911 38 14
4.7091975 0.42321905 -0.40886635 39 18
4.709475 0.42241526 -0.34376737 37 22
4.7237434 0.42368364 -0.27880871 37 26
4.7421641 0.42448694 -0.2137429 34 32
4.7497296 0.42432258 -0.14790459 45 40
4.7612872 0.42534593 -0.081984296 36 48
4.7720022 0.42545521 -0.015768817 42 56
4.7326794 0.56117266 -0.22222419 33 31
4.7452288 0.5626536 -0.15649427 42 39
4.6944366 0.40621689 -0.47414911 38 14
4.7056828 0.40635368 -0.40843228 40 18
4.7109208 0.40597352 -0.34376737 37 22
4.7251935 0.40719211 -0.27880871 39 26
4.7436171 0.40793112 -0.2137429 34 32
4.7511821 0.40774035 -0.14790459 49 40
4.762743 0.40872335 -0.081984296 36 48
4.773458 0.40879527 -0.015768817 47 56
4.7732158 0.4087747 0.05062319 39 64
4.7346096 0.54464912 -0.22222419 37 31
4.7471642 0.54608619 -0.15649427 49 39
4.7599449 0.53745109 -0.090454757 80 47
4.6943278 0.66972709 -0.29523662 65 25
4.6958256 0.38982776 -0.47414911 36 14
4.7078438 0.67165065 -0.22999214 94 30
4.7070727 0.3899253 -0.40843228 45 18
4.7123089 0.38952687 -0.34376737 37 22
4.7265859 0.39069563 -0.27880871 50 26
4.7450118 0.39137033 -0.2137429 36 32
4.7525764 0.39115316 -0.14790459 53 40
4.7641406 0.3920958 -0.081984296 34 48
4.7748561 0.39213029 -0.015768817 50 56
4.7746134 0.39211059 0.05062319 43 64
4.7364817 0.52811897 -0.22222419 38 31
4.7490411 0.52951223 -0.15649427 52 39
4.7617917 0.52083254 -0.090454757 81 47
4.6966376 0.6533367 -0.29523662 71 25
4.6971579 0.37343392 -0.47414911 34 14
4.715107 0.65589952 -0.23023552 63 30
4.7133713 0.37388217 -0.40886635 66 18
4.7136397 0.37307546 -0.34376737 56 22
4.7229447 0.37380451 -0.27851307 55 26
4.7463493 0.37480474 -0.2137429 36 32
4.7539124 0.37456119 -0.14790459 53 40
4.7604957 0.37507468 -0.081897907 34 48
4.7712111 0.3750726 -0.015752235 47 56
4.7709684 0.3750537 0.050569959 45 64
4.7333307 0.51104903 -0.22198954 40 31
4.7458911 0.51239806 -0.15632938 82 39
4.7586093 0.50368416 -0.090359636 60 47
4.7038345 0.63760704 -0.29554972 74 25
4.6984324 0.35703549 -0.47414911 73 14
4.7173672 0.63943678 -0.23023552 46 30
4.7096796 0.3570545 -0.40843228 70 18
4.7099409 0.35624734 -0.34340206 58 22
4.7242212 0.35731608 -0.27851307 57 26
4.7476287 0.35823458 -0.2137429 56 32
4.7502079 0.35759345 -0.14774841 53 40
4.7617764 0.35845515 -0.081897907 47 48
4.7675047 0.35804513 -0.015735652 50 56
4.7722483 0.35839766 0.050569959 41 64
4.7400537 0.49503946 -0.22222419 60 31
4.7712078 0.35664558 0.11688162 20 70
4.7476516 0.49582866 -0.15632938 82 39
4.7603383 0.48707047 -0.090359636 52 47
4.771081 0.48816359 -0.024093088 40 55
4.7060313 0.62118369 -0.29554972 72 25
4.6996503 0.34063274 -0.47414911 69 14
4.7195706 0.62296617 -0.23023552 48 30
4.7108974 0.3406125 -0.40843228 68 18
4.7161293 0.34015927 -0.34376737 56 22
4.7304177 0.34117845 -0.27880871 55 26
4.7339029 0.34059653 -0.21306506 42 32
4.7514272 0.34100994 -0.14774841 51 40
4.7580118 0.34147733 -0.08181151 37 48
4.7687254 0.34140122 -0.015735652 47 56
4.7734704 0.34173718 0.050569959 39 64
4.7417521 0.47849059 -0.22222419 55 31
4.7823949 0.34069133 0.11712769 43 70
4.7493529 0.47925326 -0.15632938 82 39
4.7620096 0.47045085 -0.090359636 58 47
4.7727561 0.47150648 -0.024093088 68 55
4.7081709 0.60475278 -0.29554972 51 25
4.6958475 0.32388744 -0.47364467 39 14
4.7217169 0.60648805 -0.23023552 43 30
4.7070885 0.32382837 -0.40799823 52 18
4.7394242 0.60791564 -0.16477111 43 38
4.7123132 0.32335734 -0.34340206 51 22
4.7266006 0.32432637 -0.27851307 52 26
4.7300797 0.32373294 -0.21283913 36 32
4.7525887 0.3244223 -0.14774841 47 40
4.7591748 0.32486671 -0.08181151 35 48
4.7698879 0.3247532 -0.015735652 40 56
4.7746344 0.32507259 0.050569959 34 64
4.7384229 0.46145463 -0.22198954 38 31
4.7685933 0.32299393 0.11675859 42 70
4.7509971 0.46267202 -0.15632938 73 39
4.7586455 0.45335412 -0.090264522 45 47
4.7006536 0.58795202 -0.36091036 30 21
4.7693958 0.4543722 -0.024067782 48 55
4.7152057 0.58893138 -0.29586279 41 25
4.7019138 0.30781493 -0.47414911 43 14
4.7238045 0.59000248 -0.23023552 35 30
4.7081904 0.30739561 -0.40799823 41 18
4.7365584 0.59075141 -0.16459748 58 38
4.7134132 0.30690637 -0.34340206 32 22
4.727704 0.30782551 -0.27851307 36 26
4.7411499 0.30785933 -0.213291 32 32
4.7487044 0.30751169 -0.14759223 48 40
4.755291 0.30793297 -0.081725128 28 48
4.7660022 0.30778286 -0.015719071 35 56
4.77075 0.30808574 0.050516725 29 64
4.740005 0.44491163 -0.22198954 36 31
4.7796693 0.30697945 0.11700466 43 70
4.7476077 0.44562092 -0.15616447 55 39
4.7601995 0.43674055 -0.090264522 41 47
4.7026772 0.57154006 -0.36091036 30 21
4.7709527 0.43772107 -0.024067782 45 55
4.7172327 0.57246864 -0.29586279 34 25
4.6979942 0.29109663 -0.47364467 36 14
4.7307925 0.57410961 -0.23047888 30 30
4.7142062 0.2912623 -0.40843228 36 18
4.7435522 0.5748136 -0.16477111 45 38
4.7144556 0.29045159 -0.34340206 31 22
4.7237678 0.29101789 -0.27821741 35 26
4.7421961 0.29130778 -0.213291 32 32
4.7447605 0.2906321 -0.14743604 47 40
4.7563372 0.29133204 -0.081725128 29 48
4.7670479 0.29114455 -0.015719071 34 56
4.7717962 0.29143083 0.050516725 31 64
4.741529 0.4283632 -0.22198954 37 31
4.775722 0.28999439 0.11688162 32 70
4.7441573 0.42859915 -0.15599957 45 39
4.7567148 0.41968516 -0.0901694 41 47
4.7046437 0.55512118 -0.36091036 32 21
4.7674704 0.42062804 -0.024042474 42 55
4.719202 0.55599898 -0.29586279 34 25
4.703948 0.27498215 -0.47414911 35 14
4.767417 0.41978487 0.042280041 40 63
4.7278085 0.55700999 -0.23023552 33 30
4.7102213 0.27451903 -0.40799823 36 18
4.7405667 0.55766982 -0.16459748 40 38
4.7154403 0.27399331 -0.34340206 32 22
4.7247543 0.2745271 -0.27821741 36 26
4.7381973 0.27446774 -0.21306506 30 32
4.7457461 0.27406803 -0.14743604 40 40
4.7573252 0.27472755 -0.081725128 31 48
4.7680354 0.27450269 -0.015719071 38 56
4.7727852 0.27477241 0.050516725 31 64
4.738019 0.41138032 -0.22175488 36 31
4.7816963 0.27360386 0.11700466 36 70
4.7456245 0.41203636 -0.15599957 41 39
4.7579656 0.55381835 -0.098752148 90 46
4.6799979 0.40555263 -0.55997539 95 10
4.7248974 0.69067287 -0.23923706 43 29
4.7581506 0.40307859 -0.0901694 38 47
4.706553 0.53869551 -0.36091036 32 21
4.7689095 0.40398395 -0.024042474 44 55
4.7161555 0.53895754 -0.29554972 39 25
4.7048793 0.25856063 -0.47414911 37 14
4.7638712 0.40272257 0.042235535 57 63
4.7297239 0.54050344 -0.23023552 35 30
4.7111506 0.25807559 -0.40799823 38 18
4.7424846 0.5411188 -0.16459748 49 38
4.7113886 0.25726372 -0.34303671 38 22
4.7206998 0.25776473 -0.27792174 52 26
4.7391267 0.25792664 -0.21306506 35 32
4.7466741 0.25750062 -0.14743604 54 40
4.7065067 0.53452986 -0.42696598 61 17
4.7582555 0.25811973 -0.081725128 32 48
4.7689643 0.25785744 -0.015719071 43 56
4.7687225 0.25784457 0.050463494 32 64
4.7394261 0.39483902 -0.22175488 39 31
4.7470341 0.3954685 -0.15599957 62 39
4.7648373 0.5377655 -0.098855987 60 46
4.6962285 0.39043948 -0.56176448 101 10
4.7173924 0.67276669 -0.23873284 60 29
4.7595286 0.38646707 -0.0901694 36 47
4.7084045 0.52226335 -0.36091036 48 21
4.7702904 0.38733485 -0.024042474 66 55
4.718008 0.52249175 -0.29554972 40 25
4.7057528 0.24213597 -0.47414911 64 14
4.7702312 0.38649207 0.042280041 57 63
4.7315817 0.52399027 -0.23023552 37 30
4.7120228 0.24162903 -0.40799823 49 18
4.7443447 0.52456117 -0.16459748 69 38
4.7122583 0.24081635 -0.34303671 49 22
4.7265563 0.24153565 -0.27821741 51 26
4.7399979 0.24138246 -0.21306506 38 32
4.7475443 0.24093007 -0.14743604 57 40
4.6934948 0.51646894 -0.42560911 66 17
4.7591271 0.24150874 -0.081725128 57 48
4.764842 0.24096051 -0.01570249 43 56
4.7596068 0.24069987 0.050357033 36 64
4.7407756 0.37829292 -0.22175488 38 31
4.7483854 0.37889585 -0.15599957 55 39
4.7567468 0.52004665 -0.09864831 47 46
4.6827154 0.37287045 -0.55997539 98 10
4.7296042 0.65767032 -0.23923706 66 29
4.760849 0.36985081 -0.0901694 57 47
4.7101989 0.50582474 -0.36091036 35 21
4.7666287 0.37029657 -0.024017164 54 55
4.7198038 0.50601965 -0.29554972 48 25
4.7065701 0.22570835 -0.47414911 83 14
4.7665668 0.36945492 0.042235535 49 63
4.7333822 0.50747085 -0.23023552 38 30
4.7178135 0.22541331 -0.40843228 60 18
4.7461467 0.5079971 -0.16459748 58 38
4.7130704 0.22436604 -0.34303671 55 22
4.7223845 0.22480203 -0.27792174 52 26
4.7408118 0.22483531 -0.21306506 54 32
4.7483563 0.22435659 -0.14743604 64 40
4.7051721 0.50113374 -0.42651367 53 17
4.7549472 0.2246628 -0.081638739 62 48
4.7606597 0.22409548 -0.01568591 49 56
4.7654114 0.22431542 0.05041026 41 64
4.7420673 0.36174226 -0.22175488 41 31
4.7496791 0.36231861 -0.15599957 64 39
4.7635045 0.50396365 -0.098752148 43 46
4.6938896 0.35727036 -0.56116807 28 10
4.7693868 0.50458401 -0.032400709 28 54
4.7219739 0.639817 -0.23873284 65 29
4.7621107 0.35323012 -0.0901694 45 47
4.711936 0.48937997 -0.36091036 38 21
4.7678924 0.35365567 -0.024017164 51 55
4.7215409 0.48954138 -0.29554972 54 25
4.7023592 0.209061 -0.47364467 80 14
4.7628403 0.35244805 0.042191029 44 63
4.7351251 0.49094513 -0.23023552 49 30
4.7086182 0.20851088 -0.40756419 63 18
4.7478909 0.49142689 -0.16459748 75 38
4.7138243 0.20791297 -0.34303671 56 22
4.7231402 0.20831645 -0.27792174 52 26
4.7365775 0.20807016 -0.21283913 40 32
4.7491102 0.20778036 -0.14743604 73 40
4.7019396 0.48419824 -0.42606142 53 17
4.7557025 0.20806357 -0.081638739 53 48
4.7614131 0.20747632 -0.01568591 47 56
4.7561755 0.20725222 0.050303798 41 64
4.7433014 0.34518713 -0.22175488 60 31
4.7509151 0.34573692 -0.15599957 61 39
4.7602611 0.48682588 -0.09864831 45 46
4.7000594 0.34124017 -0.56176448 51 10
4.7711191 0.48793262 -0.032400709 94 54
4.7241783 0.6233303 -0.23873284 61 29
4.7270555 0.62370962 -0.17185688 68 37
4.758328 0.33625549 -0.090074286 39 47
4.7136154 0.4729293 -0.36091036 52 21
4.7641106 0.33666086 -0.023991857 45 55
4.7232208 0.47305718 -0.29554972 50 25
4.7030602 0.1926454 -0.47364467 84 14
4.7690296 0.33616927 0.042235535 37 63
4.7318401 0.47391745 -0.22999214 57 30
4.7093172 0.19207345 -0.40756419 68 18
4.7495775 0.47485062 -0.16459748 69 38
4.7095389 0.19125903 -0.34267142 52 22
4.7188516 0.1916298 -0.27762607 52 26
4.7322836 0.19133732 -0.21261318 25 32
4.6822987 0.46649653 -0.48994681 56 13
4.7398195 0.19080746 -0.14712368 59 40
4.6986456 0.46729136 -0.42560911 54 17
4.7563992 0.1914618 -0.081638739 35 48
4.7621078 0.19085462 -0.01568591 49 56
4.7394948 0.32828555 -0.22152022 52 31
4.747107 0.32880852 -0.15583466 45 39
4.7619314 0.4702065 -0.09864831 41 46
4.7012219 0.32483178 -0.56176448 52 10
4.7678175 0.47078571 -0.032366678 50 54
4.7263255 0.60683602 -0.23873284 40 29
4.7341604 0.60784113 -0.17203836 61 37
4.7594724 0.31964383 -0.090074286 30 47
4.7102757 0.45599419 -0.36052766 52 21
4.7652559 0.32002899 -0.023991857 39 55
4.7198768 0.45608887 -0.29523662 48 25
4.7037039 0.1762275 -0.47364467 74 14
4.7651854 0.31918883 0.042191029 30 63
4.7334657 0.45739734 -0.22999214 38 30
4.7149377 0.17581539 -0.40799823 49 18
4.7462316 0.45779055 -0.16442385 50 38
4.7151613 0.17499948 -0.34303671 31 22
4.7244797 0.17533791 -0.27792174 35 26
4.732923 0.1748174 -0.21261318 31 32
4.6838989 0.45014939 -0.48994681 80 13
4.7404561 0.17426124 -0.14712368 41 40
4.7002478 0.45088714 -0.42560911 53 17
4.7520428 0.174678 -0.081552342 34 48
4.7577481 0.17405173 -0.015669327 43 56
4.7356272 0.31141466 -0.22128555 41 31
4.7482257 0.31223601 -0.15583466 43 39
4.7585669 0.4531092 -0.098544464 36 46
4.6973734 0.30809739 -0.56116807 48 10
4.7694321 0.4541401 -0.032366678 47 54
4.7284155 0.59033442 -0.23873284 28 29
4.7312951 0.59069359 -0.17185688 59 37
4.7555709 0.30271348 -0.089979172 31 47
4.7118387 0.43954948 -0.36052766 42 21
4.7613544 0.30307835 -0.023966549 42 55
4.7214398 0.43961066 -0.29523662 39 25
4.7042904 0.15980744 -0.47364467 50 14
4.7662702 0.30255327 0.042191029 31 63
4.7300611 0.44041041 -0.22974876 36 30
4.7105436 0.15919182 -0.40756419 51 18
4.7428255 0.44075963 -0.16425024 50 38
4.7057753 0.15821224 -0.34230608 33 22
4.7200742 0.15868159 -0.27762607 32 26
4.7335038 0.15829533 -0.21261318 28 32
4.6903934 0.43425357 -0.49046859 41 13
4.7410359 0.15771289 -0.14712368 43 40
4.7017932 0.43447748 -0.42560911 42 17
4.7476268 0.15792692 -0.081465952 33 48
4.758327 0.15744303 -0.015669327 37 56
4.7366853 0.29488236 -0.22128555 32 31
4.7393107 0.29504433 -0.15550485 40 39
4.7601194 0.43649596 -0.098544464 43 46
4.69842 0.29169866 -0.56116807 44 10
4.770988 0.43748888 -0.032366678 36 54
4.7709761 0.43748781 0.034025777 30 62
4.7304468 0.5738256 -0.23873284 35 29
4.7382889 0.57477593 -0.17203836 41 37
4.7516084 0.28581423 -0.089884058 32 47
4.7133446 0.42309943 -0.36052766 37 21
4.7623835 0.28645626 -0.023966549 33 55
4.7229457 0.42312706 -0.29523662 37 25
4.7048197 0.14338543 -0.47364467 50 14
4.7672973 0.28591403 0.042191029 32 63
4.7315693 0.4238967 -0.22974876 36 30
4.7110705 0.14274797 -0.40756419 45 18
4.7443352 0.42420143 -0.16425024 38 38
4.7062993 0.14178506 -0.34230608 36 22
4.7464528 0.56484061 -0.10682411 43 45
4.7156105 0.14205816 -0.27733043 36 26
4.7340279 0.14177138 -0.21261318 28 32
4.6918807 0.41787839 -0.49046859 75 13
4.7415576 0.14116263 -0.14712368 37 40
4.7082415 0.4185017 -0.42606142 39 17
4.7431521 0.14120884 -0.08137957 29 48
4.7538495 0.14068843 -0.015652746 31 56
4.7376862 0.27834642 -0.22128555 33 31
4.7453012 0.27878952 -0.15566975 41 39
4.7566342 0.41943997 -0.098440625 39 46
4.6994095 0.27529633 -0.56116807 42 10
4.7675052 0.42039484 -0.03233264 36 54
4.7724743 0.42083132 0.034025777 43 62
4.7324209 0.55730969 -0.23873284 36 29
4.7402663 0.55823272 -0.17203836 40 37
4.7525768 0.26922628 -0.089884058 39 47
4.7147923 0.4066442 -0.36052766 37 21
4.7633538 0.2698307 -0.023966549 37 55
4.7243938 0.40663835 -0.29523662 38 25
4.7052913 0.12696166 -0.47364467 43 14
4.7682662 0.26927134 0.042191029 36 63
4.7330198 0.40737787 -0.22974876 36 30
4.7065616 0.12617289 -0.40713018 46 18
4.7457876 0.40763801 -0.16425024 42 38
4.7067652 0.12535614 -0.34230608 41 22
4.758327 0.54941463 -0.10704925 58 45
4.7160778 0.12559675 -0.27733043 48 26
4.7344937 0.12524568 -0.21261318 28 32
4.6933107 0.40149814 -0.49046859 76 13
4.7370253 0.12448331 -0.1469675 45 40
4.7047119 0.40164244 -0.42560911 45 17
4.7436166 0.1246513 -0.08137957 31 48
4.7386284 0.26180711 -0.22128555 37 31
4.7412553 0.26195076 -0.15550485 72 39
4.75807 0.40283361 -0.098440625 36 46
4.7003422 0.25889063 -0.56116807 57 10
4.7689438 0.40375054 -0.03233264 40 54
4.7689323 0.40374959 0.033989996 47 62
4.7343378 0.5407871 -0.23873284 36 29
4.7421861 0.54168266 -0.17203836 49 37
4.7115936 0.67505264 -0.24672532 60 28
4.7534876 0.25263503 -0.089884058 49 47
4.7161832 0.39018402 -0.36052766 47 21
4.764267 0.25320184 -0.023966549 48 55
4.7257848 0.39014468 -0.29523662 54 25
4.7057061 0.11053636 -0.47364467 42 14
4.764184 0.25236368 0.042146523 44 63
4.7294359 0.39044484 -0.22950538 37 30
4.7069736 0.10974316 -0.40713018 56 18
4.7471814 0.39106965 -0.16425024 59 38
4.7121596 0.1090371 -0.34267142 39 22
4.7502804 0.5316906 -0.10682411 56 45
4.7164874 0.1091338 -0.27733043 54 26
4.7349024 0.10871843 -0.21261318 33 32
4.6946836 0.385113 -0.49046859 76 13
4.737431 0.10794725 -0.1469675 48 40
4.7060852 0.38521749 -0.42560911 45 17
4.7490201 0.10820215 -0.081465952 37 48
4.7395139 0.24526463 -0.22128555 39 31
4.7421412 0.2453991 -0.15550485 62 39
4.7594471 0.38622242 -0.098440625 37 46
4.7012167 0.24248181 -0.56116807 67 10
4.7703238 0.38710138 -0.03233264 52 54
4.7703123 0.38710046 0.033989996 50 62
4.7312336 0.52370906 -0.23848078 37 29
4.7440481 0.5251261 -0.17203836 80 37
4.6900606 0.6569348 -0.3113305 94 24
4.7139211 0.658602 -0.24672532 42 28
4.7543402 0.23604073 -0.089884058 76 47
4.7175164 0.3737191 -0.36052766 56 21
4.760128 0.2363248 -0.023941241 61 55
4.7221432 0.37325472 -0.29492357 48 25
4.7010903 0.094014227 -0.4731403 77 14
4.7600427 0.23548782 0.04210202 42 63
4.7307696 0.37393364 -0.22950538 41 30
4.712307 0.093406834 -0.40756419 63 18
4.748517 0.37449649 -0.16425024 61 38
4.712512 0.092587933 -0.34267142 42 22
4.7570772 0.51564395 -0.10693668 75 45
4.7218299 0.092763595 -0.27762607 66 26
4.7148218 0.37019458 -0.58873147 67 9
4.7532206 0.51438701 -0.040579945 17 53
4.7302589 0.092096604 -0.21238722 53 32
4.7009573 0.3691107 -0.49099037 50 13
4.7327819 0.091317415 -0.14681132 49 40
4.7123656 0.36917508 -0.42606142 48 17
4.734374 0.091346875 -0.081206784 40 48
4.7353525 0.22848129 -0.2210509 39 31
4.7429686 0.22884445 -0.15550485 69 39
4.760766 0.36960649 -0.098440625 42 46
4.702035 0.22607003 -0.56116807 80 10
4.7666612 0.37006214 -0.032298606 53 54
4.7716346 0.37044659 0.033989996 53 62
4.7330327 0.50719076 -0.23848078 45 29
4.7707644 0.3695417 0.10030534 36 69
4.745852 0.50856304 -0.17203836 84 37
4.7022109 0.64191014 -0.31199145 75 24
4.7211385 0.64281744 -0.24698611 66 28
4.7551355 0.21944354 -0.089884058 60 47
4.7138205 0.35687491 -0.36014491 39 21
4.7609239 0.21970741 -0.023941241 54 55
4.7234173 0.35676908 -0.29492357 54 25
4.7013898 0.07760378 -0.4731403 74 14
4.7658296 0.21909751 0.042146523 53 63
4.7320461 0.35741788 -0.22950538 54 30
4.7076244 0.076879889 -0.40713018 70 18
4.7497954 0.3579188 -0.16425024 53 38
4.7128062 0.076137632 -0.34267142 61 22
4.7538767 0.49851474 -0.10682411 77 45
4.7221251 0.076280773 -0.27762607 62 26
4.7160854 0.35373452 -0.58873147 67 9
4.7599592 0.49831206 -0.040622707 64 53
4.7355461 0.075660206 -0.21261318 51 32
4.7022171 0.35269907 -0.49099037 58 13
4.7380691 0.074871376 -0.1469675 49 40
4.7086596 0.35235372 -0.42560911 52 17
4.7446613 0.074970335 -0.08137957 43 48
4.7361212 0.21195044 -0.2210509 53 31
4.7437387 0.21228701 -0.15550485 72 39
4.7620268 0.35298607 -0.098440625 50 46
4.6978354 0.20943721 -0.56057173 100 10
4.7729096 0.35378909 -0.03233264 48 54
4.7679119 0.35342032 0.033954214 47 62
4.7397413 0.49118048 -0.23873284 69 29
4.7620544 0.35215238 0.10009417 49 69
4.7475986 0.49199381 -0.17203836 88 37
4.6945324 0.62417626 -0.3113305 82 24
4.7184043 0.62567687 -0.24672532 57 28
4.7313776 0.62655836 -0.18113218 38 36
4.7508779 0.20263349 -0.089788936 64 47
4.7150373 0.34041843 -0.36014491 53 21
4.761662 0.20308736 -0.023941241 47 55
4.7246337 0.34027913 -0.29492357 52 25
4.701632 0.061192393 -0.4731403 51 14
4.7565746 0.2020416 0.042057514 47 63
4.7282844 0.3405408 -0.22926201 58 30
4.7078643 0.060446735 -0.40713018 59 18
4.7410474 0.34062392 -0.16390297 54 38
4.7080569 0.05962722 -0.34230608 50 22
4.760561 0.48242098 -0.10693668 84 45
4.7173715 0.059737779 -0.27733043 45 26
4.7073941 0.33656591 -0.58748674 57 9
4.7566957 0.48119104 -0.040579945 52 53
4.7307868 0.059071198 -0.21238722 36 32
4.7034197 0.33628309 -0.49099037 56 13
4.733304 0.058274403 -0.14681132 49 40
4.7098613 0.33591527 -0.42560911 49 17
4.7368321 0.19541699 -0.2210509 38 31
4.7394576 0.1955238 -0.15533996 52 39
4.7632303 0.33636135 -0.098440625 43 46
4.7034984 0.19323838 -0.56116807 86 10
4.7691283 0.33677584 -0.032298606 44 54
4.7691169 0.33677503 0.033954214 40 62
4.7414269 0.47463271 -0.23873284 49 29
4.7682414 0.33587718 0.10019976 50 69
4.7492871 0.47541866 -0.17203836 68 37
4.7115254 0.60970795 -0.31232196 52 24
4.7255111 0.60984236 -0.24698611 56 28
4.7384915 0.61067808 -0.18132326 53 36
4.7515564 0.1860486 -0.089788936 38 47
4.7161975 0.32395777 -0.36014491 43 21
4.7573457 0.18627201 -0.023915933 48 55
4.7257929 0.32378498 -0.29492357 50 25
4.6968422 0.044736855 -0.47263587 38 14
4.7244611 0.3236942 -0.22901863 43 30
4.7030659 0.043970257 -0.40669611 45 18
4.7471929 0.32441151 -0.1640766 45 38
4.7032495 0.043150894 -0.34194076 29 22
4.7572408 0.46531454 -0.10682411 69 45
4.7125602 0.043228894 -0.27703476 36 26
4.70854 0.32013199 -0.58748674 55 9
4.7633224 0.46506938 -0.040622707 43 53
4.7309642 0.042557307 -0.21238722 41 32
4.6996031 0.31952745 -0.49046859 50 13
4.7284813 0.041711606 -0.14665513 45 40
4.7110047 0.31947276 -0.42560911 45 17
4.7324944 0.17869553 -0.22081624 30 31
4.7351174 0.17879309 -0.15517505 55 39
4.7643752 0.31973252 -0.098440625 30 46
4.7041445 0.17681894 -0.56116807 106 10
4.7702746 0.32012641 -0.032298606 43 54
4.7702632 0.32012564 0.033954214 29 62
4.7380843 0.4575997 -0.23848078 37 29
4.7643962 0.31889871 0.10009417 40 69
4.7459431 0.45835781 -0.17185688 72 37
4.7037253 0.5920108 -0.31166095 52 24
4.7276111 0.5933435 -0.24698611 53 28
4.7356367 0.59351212 -0.18113218 51 36
4.7521768 0.16946143 -0.089788936 34 47
4.7123246 0.30717063 -0.35976219 35 21
4.7579665 0.16966464 -0.023915933 41 55
4.7219143 0.30696487 -0.29461047 36 25
4.6969695 0.028341539 -0.47263587 39 14
4.7355294 0.30784532 -0.22950538 36 30
4.7031908 0.027553225 -0.40669611 36 18
4.7383232 0.30719551 -0.16372934 41 38
4.6983848 0.026708856 -0.34157544 30 22
4.7538595 0.44823715 -0.10671154 46 45
4.7126822 0.026778728 -0.27703476 31 26
4.7046776 0.30337659 -0.58686441 49 9
4.7649164 0.44843945 -0.040622707 37 53
4.726089 0.026019368 -0.21216127 30 32
4.7006898 0.30312079 -0.49046859 44 13
4.7700768 0.44808465 0.025726901 28 61
4.7136059 0.025137842 -0.14618659 40 40
4.7071218 0.30270845 -0.4251568 45 17
4.733089 0.16217494 -0.22081624 29 31
4.7357125 0.16226335 -0.15517505 40 39
4.7604733 0.30278414 -0.098336779 30 46
4.6997714 0.16023099 -0.56057173 80 10
4.7663736 0.30315742 -0.032264572 31 54
4.7663617 0.30315667 0.033918437 28 62
4.7346802 0.44059575 -0.23822868 38 29
4.7654805 0.30226591 0.10009417 29 69
4.7425394 0.4413262 -0.17167543 48 37
4.7059364 0.57560927 -0.37771842 40 20
4.7107158 0.57619447 -0.31199145 38 24
4.7296534 0.57683742 -0.24698611 39 28
4.73768 0.57697809 -0.18113218 45 36
4.7477422 0.15271431 -0.089693822 32 47
4.7183437 0.29102492 -0.36014491 33 21
4.7535319 0.15289727 -0.023890626 35 55
4.7229571 0.29048043 -0.29461047 35 25
4.6970401 0.011945884 -0.47263587 35 14
4.7315912 0.29100853 -0.22926201 31 30
4.703258 0.011135859 -0.40669611 34 18
4.7393665 0.29065382 -0.16372934 36 38
4.7034369 0.010315233 -0.34194076 29 22
4.7553954 0.43164036 -0.10671154 41 45
4.7127476 0.010328234 -0.27703476 39 26
4.7057076 0.28695235 -0.58686441 43 9
4.7664528 0.43180409 -0.040622707 42 53
4.7211556 0.0095159775 -0.21193536 29 32
4.7017193 0.2867105 -0.49046859 35 13
4.7666321 0.43098158 0.025699848 59 61
4.7286572 0.0086998343 -0.14665513 31 40
4.7131205 0.28657621 -0.42560911 42 17
4.7286339 0.14550163 -0.22058156 30 31
4.7362499 0.14573166 -0.15517505 38 39
4.7565117 0.28586698 -0.098232947 30 46
4.7003021 0.14382477 -0.56057173 75 10
4.7624116 0.28621957 -0.032230537 31 54
4.7723818 0.2868154 0.033954214 31 62
4.7361894 0.42406595 -0.23822868 39 29
4.7615166 0.28533208 0.09998858 29 69
4.744051 0.42476898 -0.17167543 47 37
4.6980181 0.55800217 -0.3769182 31 20
4.7126975 0.55974746 -0.31199145 33 24
4.731638 0.56032437 -0.24698611 32 28
4.7446265 0.56102419 -0.18132326 36 36
4.7567081 0.56161231 -0.11534601 49 44
4.7482467 0.13614066 -0.089693822 31 47
4.714354 0.27426517 -0.35976219 35 21
4.7540369 0.13630341 -0.023890626 36 55
4.7239418 0.27399248 -0.29461047 35 25
4.697053 -0.0044505736 -0.47263587 35 14
4.7325778 0.27449045 -0.22926201 34 30
4.7032685 -0.0052822977 -0.40669611 35 18
4.7403522 0.27410859 -0.16372934 41 38
4.7034435 -0.0061035422 -0.34194076 29 22
4.7568731 0.41503832 -0.10671154 39 45
4.7077632 -0.006112589 -0.27673909 39 26
4.696775 0.26995865 -0.58561975 46 9
4.767931 0.41516343 -0.040622707 39 53
4.7261553 -0.0069759805 -0.21216127 31 32
4.7026911 0.27029669 -0.49046859 37 13
4.7681079 0.41434026 0.025699848 34 61
4.7086692 -0.0077581266 -0.1460304 34 40
4.7091208 0.26983941 -0.4251568 41 17
4.7291136 0.12899472 -0.22058156 31 31
4.7367301 0.12919816 -0.15517505 46 39
4.7524896 0.26898113 -0.098129109 32 46
4.7007751 0.12741677 -0.56057173 76 10
4.7683735 0.26987475 -0.032264572 36 54
4.7683616 0.2698741 0.033918437 31 62
4.7376409 0.40753099 -0.23822868 37 29
4.7674747 0.26898944 0.10009417 31 69
4.7455049 0.40820655 -0.17167543 40 37
4.7098393 0.54274184 -0.37771842 33 20
4.714623 0.54329365 -0.31199145 34 24
4.7335653 0.54380441 -0.24698611 31 28
4.7415924 0.54388899 -0.18113218 38 36
4.7586393 0.5450049 -0.11534601 72 44
4.7436957 0.11944236 -0.089598715 34 47
4.7152824 0.25780737 -0.35976219 38 21
4.7248697 0.25750118 -0.29461047 40 25
4.6970091 -0.02084632 -0.47263587 34 14
4.7285204 0.25769889 -0.22901863 36 30
4.7032208 -0.021699736 -0.40669611 41 18
4.7412801 0.25755998 -0.16372934 47 38
4.7033935 -0.022521589 -0.34194076 30 22
4.7533107 0.39801461 -0.10659898 39 45
4.7127042 -0.022573587 -0.27703476 49 26
4.6976886 0.25356218 -0.58561975 57 9
4.7693515 0.3985177 -0.040622707 41 53
4.7261024 -0.023473296 -0.21216127 33 32
4.7036061 0.25387958 -0.49046859 51 13
4.7695251 0.39769396 0.025699848 50 61
4.7100339 0.25339988 -0.4251568 39 17
4.7295346 0.11248624 -0.22058156 36 31
4.7371521 0.11266309 -0.15517505 61 39
4.7533994 0.25239021 -0.098129109 38 46
4.7061543 0.11112159 -0.56116807 79 10
4.7642937 0.25296494 -0.032230537 46 54
4.7692747 0.25322774 0.033918437 37 62
4.7440114 0.39140108 -0.23848078 38 29
4.7469006 0.39163914 -0.17167543 51 37
4.7017994 0.52519047 -0.3769182 35 20
4.7115326 0.52627879 -0.31166095 36 24
4.7304726 0.52672482 -0.24672532 36 28
4.7434616 0.52733445 -0.18113218 43 36
4.7555442 0.52783883 -0.11522473 74 44
4.7490816 0.1029886 -0.089693822 52 47
4.7161536 0.24134639 -0.35976219 53 21
4.7257395 0.24100672 -0.29461047 56 25
4.6969075 -0.037241817 -0.47263587 72 14
4.7343788 0.24144436 -0.22926201 38 30
4.7031169 -0.03811691 -0.40669611 51 18
4.7421508 0.24100827 -0.16372934 62 38
4.7032866 -0.038939361 -0.34194076 52 22
4.7546716 0.38142002 -0.10659898 45 45
4.7076058 -0.038978562 -0.27673909 49 26
4.698545 0.23716266 -0.58561975 67 9
4.7657294 0.38146877 -0.040579945 54 53
4.7110071 -0.03983172 -0.21148345 37 32
4.7044635 0.23745938 -0.49046859 65 13
4.770884 0.38104281 0.025699848 48 61
4.7108893 0.23695725 -0.4251568 48 17
4.7298985 0.095976397 -0.22058156 42 31
4.7375164 0.096126661 -0.15517505 65 39
4.7542515 0.23579621 -0.098129109 52 46
4.7015505 0.094596341 -0.56057173 97 10
4.7651472 0.23633292 -0.032230537 50 54
4.7651353 0.23633234 0.033882655 43 62
4.7403708 0.37444633 -0.23822868 43 29
4.748239 0.375067 -0.17167543 67 37
4.6780329 0.50683212 -0.44055372 73 16
4.7036042 0.508775 -0.3769182 38 20
4.7133408 0.50982934 -0.31166095 42 24
4.7322826 0.51020914 -0.24672532 39 28
4.7452736 0.51077348 -0.18113218 57 36
4.7573581 0.51123565 -0.11522473 51 44
4.7634768 0.51189387 -0.048134279 28 52
4.7310557 0.66328305 -0.18959852 36 35
4.7444139 0.086322471 -0.089598715 63 47
4.7169676 0.22488247 -0.35976219 54 21
4.7215676 0.22427429 -0.2942974 49 25
4.6917748 -0.053576078 -0.47213143 73 14
4.7302041 0.22468157 -0.22901863 54 30
4.7029552 -0.054533619 -0.40669611 57 18
4.7429628 0.2244536 -0.16372934 59 38
4.7031217 -0.055356652 -0.34194076 53 22
4.7559733 0.36482081 -0.10659898 65 45
4.7074409 -0.055410933 -0.27673909 51 26
4.6943889 0.22052912 -0.58499742 95 9
4.7620468 0.36444998 -0.040537182 48 53
4.7208285 -0.056403238 -0.21193536 49 32
4.7052641 0.22103629 -0.49046859 55 13
4.7721853 0.36438698 0.025699848 43 61
4.7166624 0.22074284 -0.42560911 61 17
4.7302046 0.079465397 -0.22058156 59 31
4.7328262 0.079507954 -0.15501013 55 39
4.7550459 0.21919934 -0.098129109 62 46
4.7018518 0.078184292 -0.56057173 86 10
4.7609491 0.21946947 -0.032196503 53 54
4.7709265 0.21992603 0.033918437 46 62
4.7416487 0.35789704 -0.23822868 47 29
4.7495193 0.35849023 -0.17167543 68 37
4.6847239 0.4910191 -0.44102335 74 16
4.7053514 0.49235323 -0.3769182 48 20
4.7150917 0.49337357 -0.31166095 45 24
4.7340345 0.4936873 -0.24672532 48 28
4.7470279 0.49420628 -0.18113218 74 36
4.7591138 0.49462625 -0.11522473 51 44
4.7602615 0.49474567 -0.048083663 53 52
4.7283921 0.64608639 -0.18939872 100 35
4.7446866 0.069760844 -0.089598715 61 47
4.7127433 0.20819749 -0.35937944 51 21
4.722322 0.20779158 -0.2942974 58 25
4.6915593 -0.069953106 -0.47213143 63 14
4.7309599 0.20816872 -0.22901863 50 30
4.7027359 -0.070949666 -0.40669611 55 18
4.7387252 0.20767912 -0.16355573 57 38
4.6979136 -0.071693204 -0.34157544 42 22
4.752233 0.3478528 -0.10648642 49 45
4.7072191 -0.071842626 -0.27673909 43 26
4.7000861 0.20435512 -0.58561975 87 9
4.7682762 0.34818867 -0.040579945 62 53
4.7106142 -0.072719522 -0.21148345 42 32
4.706007 0.2046105 -0.49046859 83 13
4.7684407 0.34736401 0.025672795 42 61
4.712429 0.20406353 -0.4251568 58 17
4.7304535 0.062953413 -0.22058156 49 31
4.7330751 0.062986821 -0.15501013 50 39
4.7557817 0.20259978 -0.098129109 59 46
4.702096 0.061771285 -0.56057173 99 10
4.7666812 0.20306042 -0.032230537 48 54
4.7666693 0.20305991 0.033882655 45 62
4.7428689 0.34134343 -0.23822868 61 29
4.750742 0.34190914 -0.17167543 65 37
4.686409 0.47466335 -0.44102335 57 16
4.7070413 0.47592548 -0.3769182 62 20
4.7167854 0.47691181 -0.31166095 61 24
4.7357292 0.47715944 -0.24672532 53 28
4.748724 0.477633 -0.18113218 68 36
4.7608113 0.47801083 -0.11522473 56 44
4.7669344 0.47862634 -0.048134279 53 52
4.7355714 0.63023812 -0.18959852 56 35
4.7449007 0.053198379 -0.089598715 53 47
4.7134409 0.19174565 -0.35937944 49 21
4.7180319 0.19110604 -0.29398429 53 25
4.6912866 -0.086329281 -0.47213143 36 14
4.7266674 0.19145286 -0.22877525 45 30
4.6974792 -0.087268338 -0.40626207 43 18
4.7344279 0.19093694 -0.1633821 49 38
4.6976352 -0.088091545 -0.34157544 28 22
4.7534184 0.33126232 -0.10648642 42 45
4.696959 -0.088078327 -0.27614778 49 26
4.7007709 0.1879475 -0.58561975 82 9
4.7694631 0.33154219 -0.040579945 43 53
4.7066922 0.18818223 -0.49046859 95 13
4.7746124 0.33106223 0.025699848 39 61
4.708137 0.18741646 -0.42470449 58 17
4.7256494 0.046394464 -0.2203469 33 31
4.7282691 0.046418697 -0.15484522 45 39
4.7564597 0.18599778 -0.098129109 36 46
4.7022829 0.045357529 -0.56057173 80 10
4.7623649 0.1862267 -0.032196503 42 54
4.7689424 0.32648826 -0.23948915 38 29
4.7419362 0.32464242 -0.17131247 42 37
4.6880379 0.45830187 -0.44102335 57 16
4.708674 0.45949197 -0.3769182 60 20
4.7184215 0.46044427 -0.31166095 50 24
4.7323956 0.46014193 -0.24646451 56 28
4.7503624 0.461054 -0.18113218 67 36
4.7574754 0.46090701 -0.11510343 68 44
4.7635994 0.461501 -0.048083663 54 52
4.7377424 0.61370409 -0.18959852 45 35
4.7140818 0.17529151 -0.35937944 35 21
4.7236576 0.17481875 -0.2942974 36 25
4.6859837 -0.10259153 -0.47162703 36 14
4.7273068 0.17495257 -0.22877525 31 30
4.6971459 -0.10366508 -0.40626207 35 18
4.7350659 0.17440955 -0.1633821 38 38
4.6923141 -0.10437395 -0.34121013 29 22
4.7545462 0.31466779 -0.10648642 31 45
4.6916332 -0.10435827 -0.27585211 42 26
4.7013984 0.17153761 -0.58561975 109 9
4.7656016 0.31456286 -0.040537182 42 53
4.7023511 0.17157204 -0.48994681 90 13
4.77075 0.31406578 0.025672795 28 61
4.7087626 0.17098086 -0.42470449 54 17
4.7257829 0.029898586 -0.2203469 32 31
4.7284026 0.029913675 -0.15484522 36 39
4.7520843 0.1692173 -0.098025262 34 46
4.7024126 0.028943224 -0.56057173 74 10
4.7579889 0.16942558 -0.032162469 31 54
4.7600861 0.30919331 -0.23898494 29 29
4.7480268 0.30841136 -0.17149395 31 37
4.6829476 0.44213086 -0.50624293 43 12
4.6995206 0.44286999 -0.44196272 55 16
4.705287 0.44258556 -0.37651804 53 20
4.7150331 0.44350338 -0.3113305 56 24
4.733973 0.44362003 -0.24646451 47 28
4.7469673 0.44400337 -0.18094112 51 36
4.7590551 0.44429752 -0.11510343 43 44
4.7651811 0.44487011 -0.048083663 52 52
4.7740045 0.45998722 0.017446272 31 60
4.7348986 0.59653634 -0.18939872 49 35
4.7420235 0.59743637 -0.1233824 39 43
4.7096829 0.15866908 -0.35899675 41 21
4.7142644 0.15799814 -0.29367125 39 25
4.6855969 -0.11894804 -0.47162703 32 14
4.7228975 0.15828454 -0.22853185 29 30
4.6917763 -0.11992928 -0.40582803 32 18
4.7356458 0.15788001 -0.1633821 30 38
4.6919212 -0.12075255 -0.34121013 29 22
4.7506266 0.29775727 -0.10637385 36 45
4.6912408 -0.12073449 -0.27585211 34 26
4.6970105 0.15496372 -0.58499742 103 9
4.7666712 0.29792589 -0.040537182 41 53
4.7029214 0.15515672 -0.48994681 65 13
4.7668266 0.29710039 0.025645742 33 61
4.7093306 0.15454318 -0.42470449 48 17
4.7208648 0.013391011 -0.22011225 30 31
4.7234812 0.013396949 -0.15468034 33 39
4.7476497 0.15246962 -0.097921416 28 46
4.7024851 0.012528565 -0.56057173 78 10
4.7535539 0.15265726 -0.032128435 30 54
4.7411995 0.29135272 -0.23797658 35 29
4.7440872 0.29152983 -0.17131247 38 37
4.6844625 0.42578164 -0.50624293 37 12
4.7008042 0.70738184 -0.26293388 97 27
4.7010384 0.42646286 -0.44196272 43 16
4.7068038 0.42615831 -0.37651804 36 20
4.7165527 0.42704213 -0.3113305 40 24
4.7354927 0.42709264 -0.24646451 35 28
4.7435131 0.42698228 -0.18075006 41 36
4.755599 0.4272348 -0.11498214 46 44
4.7667055 0.42823383 -0.048083663 37 52
4.7755809 0.44332004 0.017446272 32 60
4.7419114 0.58061373 -0.18959852 43 35
4.7490416 0.58148921 -0.12351242 99 43
4.7102079 0.14222826 -0.35899675 35 21
4.7147875 0.14154133 -0.29367125 35 25
4.685153 -0.13530311 -0.47162703 32 14
4.7234216 0.14179759 -0.22853185 28 30
4.6913295 -0.1363059 -0.40582803 38 18
4.7361679 0.14134856 -0.1633821 34 38
4.6914711 -0.13712968 -0.34121013 30 22
4.751637 0.28117266 -0.10637385 35 45
4.6858015 -0.13695942 -0.27555645 30 26
4.7024817 0.13871175 -0.58561975 77 9
4.762691 0.28099138 -0.040494423 35 53
4.7034345 0.13873953 -0.48994681 48 13
4.7728262 0.2807523 0.025672795 34 61
4.7098413 0.13810359 -0.42470449 42 17
4.7158875 -0.003082518 -0.21987759 32 31
4.7234983 -0.0030918163 -0.15468034 36 39
4.7481527 0.1358963 -0.097921416 30 46
4.7025003 -0.0038869036 -0.56057173 74 10
4.7590556 0.13620467 -0.032162469 32 54
4.742187 0.27480108 -0.23797658 34 29
4.7450752 0.27496812 -0.17131247 39 37
4.6908722 0.40986049 -0.50678205 36 12
4.7081833 0.691697 -0.26321211 97 27
4.702498 0.4100506 -0.44196272 43 16
4.7082624 0.4097259 -0.37651804 31 20
4.7180142 0.41057569 -0.3113305 38 24
4.7369547 0.41056007 -0.24646451 34 28
4.7449746 0.4104217 -0.18075006 35 36
4.757061 0.41063204 -0.11498214 39 44
4.7681708 0.4115923 -0.048083663 36 52
4.77212 0.42620215 0.017427947 44 60
4.7439094 0.56405783 -0.18959852 40 35
4.7510424 0.56490839 -0.12351242 42 43
4.7106762 0.12578569 -0.35899675 43 21
4.7152524 0.12508279 -0.29367125 39 25
4.6896238 -0.15182145 -0.47213143 31 14
4.7238874 0.1253089 -0.22853185 32 30
4.690825 -0.15268086 -0.40582803 37 18
4.7366328 0.12481539 -0.1633821 39 38
4.6909637 -0.15350513 -0.34121013 31 22
4.7525897 0.26458466 -0.10637385 38 45
4.7029371 0.12229618 -0.58561975 78 9
4.7636428 0.26436478 -0.040494423 37 53
4.7088614 0.12244821 -0.49046859 60 13
4.773777 0.2640903 0.025672795 39 61
4.7102942 0.12166235 -0.42470449 51 17
4.7208428 -0.019567557 -0.22011225 37 31
4.7485981 0.11932133 -0.097921416 35 46
4.7024579 -0.020301668 -0.56057173 69 10
4.749506 0.11934383 -0.0320944 37 54
4.7381315 0.25797513 -0.23772447 38 29
4.7410173 0.25813192 -0.17113099 50 37
4.6922746 0.39348379 -0.50678205 35 12
4.7006865 0.67383587 -0.26265562 98 27
4.7039008 0.39363331 -0.44196272 49 16
4.7096639 0.39328849 -0.37651804 32 20
4.714447 0.39368847 -0.31099999 38 24
4.7383595 0.39402252 -0.24646451 36 28
4.7513566 0.39426985 -0.18094112 37 36
4.7534838 0.39361125 -0.11486085 39 44
4.7695785 0.39494577 -0.048083663 36 52
4.7735786 0.40954173 0.017427947 56 60
4.7458491 0.54749507 -0.18959852 47 35
4.752985 0.54832071 -0.12351242 67 43
4.7160697 0.10945557 -0.35937944 49 21
4.7206488 0.10873593 -0.29398429 48 25
4.6890655 -0.16819036 -0.47213143 36 14
4.7242961 0.1088187 -0.22853185 37 30
4.6902633 -0.16905397 -0.40582803 55 18
4.7370396 0.1082807 -0.1633821 56 38
4.6854167 -0.16969427 -0.34084481 35 22
4.7534842 0.24799341 -0.10637385 53 45
4.6983757 0.10576916 -0.58499742 99 9
4.7645369 0.24773495 -0.040494423 54 53
4.7042885 0.10590024 -0.48994681 75 13
4.7696762 0.24716692 0.025645742 55 61
4.7057123 0.10511012 -0.42425224 68 17
4.720746 -0.036046252 -0.22011225 46 31
4.7489858 0.10274491 -0.097921416 49 46
4.7023582 -0.036716186 -0.56057173 69 10
4.7340159 0.2411809 -0.2374724 42 29
4.7468796 0.2418348 -0.17131247 90 37
4.6790509 0.65489304 -0.32703778 54 23
4.6936193 0.37710232 -0.50678205 36 12
4.7128978 0.65881109 -0.26321211 98 27
4.7052464 0.37721124 -0.44196272 49 16
4.7260904 0.65982199 -0.19766469 13 34
4.7110076 0.37684628 -0.37651804 40 20
4.7157922 0.37722957 -0.31099999 42 24
4.7347279 0.37708318 -0.24620369 41 28
4.7477241 0.37728578 -0.18075006 41 36
4.7548289 0.37701607 -0.11486085 46 44
4.765944 0.37789866 -0.048033047 43 52
4.7749786 0.3928763 0.017427947 52 60
4.7692919 0.39240775 0.083727829 53 68
4.7427659 0.53036869 -0.18939872 95 35
4.7598372 0.53228348 -0.12364243 60 43
4.716423 0.092992745 -0.35937944 52 21
4.7209992 0.092257135 -0.29398429 56 25
4.6834788 -0.1843576 -0.47162703 77 14
4.724647 0.092327178 -0.22853185 57 30
4.6846671 -0.18522426 -0.40539402 55 18
4.7323923 0.091649629 -0.16320847 60 38
4.6897779 -0.18625022 -0.34121013 42 22
4.7493272 0.23115668 -0.10626128 70 45
4.6987157 0.089368127 -0.58499742 99 9
4.7653723 0.23110209 -0.040494423 64 53
4.7046289 0.089478567 -0.48994681 74 13
4.7655158 0.23027538 0.025618689 43 61
4.7060513 0.088683486 -0.42425224 56 17
4.7155972 -0.052466113 -0.21987759 63 31
4.7493153 0.086167231 -0.097921416 54 46
4.697237 -0.053071335 -0.55997539 78 10
4.7398171 0.22489074 -0.23772447 45 29
4.7427039 0.22502738 -0.17113099 79 37
4.773757 0.50855058 -0.057383087 98 51
4.6714253 0.63720226 -0.32634196 100 23
4.6998639 0.36109757 -0.50732124 39 12
4.7102222 0.64167941 -0.26293388 69 27
4.7065339 0.36078459 -0.44196272 77 16
4.7283649 0.6433208 -0.19766469 91 34
4.7172637 0.36078018 -0.3769182 53 20
4.7170801 0.36076611 -0.31099999 45 24
4.7360153 0.36055359 -0.24620369 50 28
4.7490125 0.36071086 -0.18075006 64 36
4.7610998 0.3607946 -0.11498214 50 44
4.762248 0.36088175 -0.047982432 56 52
4.7713361 0.37581298 0.017409621 53 60
4.7706323 0.37575743 0.083727829 42 68
4.7445884 0.51381016 -0.18939872 63 35
4.7616658 0.51566535 -0.12364243 98 43
4.7117348 0.076449618 -0.35899675 63 21
4.721293 0.07577721 -0.29398429 59 25
4.682807 -0.20070486 -0.47162703 67 14
4.7249408 0.075834513 -0.22853185 56 30
4.6839919 -0.20157567 -0.40539402 54 18
4.7326837 0.075129941 -0.16320847 53 38
4.6841173 -0.20240024 -0.34084481 50 22
4.7501054 0.21457702 -0.10626128 76 45
4.6940384 0.072890662 -0.58437502 96 9
4.7611551 0.21424225 -0.040451664 50 53
4.7049127 0.073055804 -0.48994681 70 13
4.7563014 0.21319257 0.025564585 50 61
4.7063322 0.072255753 -0.42425224 52 17
4.7153854 -0.06892629 -0.21987759 63 31
4.7445893 0.069516957 -0.097817585 62 46
4.69206 -0.069391198 -0.55937904 77 10
4.7355847 0.20812564 -0.2374724 46 29
4.7434607 0.20847088 -0.17113099 82 37
4.7705297 0.49137005 -0.057322875 50 51
4.6933975 0.62353081 -0.32773361 99 23
4.7010956 0.34468982 -0.50732124 63 12
4.7124333 0.62523371 -0.26293388 66 27
4.7077646 0.34435347 -0.44196272 76 16
4.7305818 0.62681174 -0.19766469 54 34
4.7135239 0.34394833 -0.37651804 67 20
4.7183113 0.34429821 -0.31099999 60 24
4.7372451 0.34401962 -0.24620369 56 28
4.7502422 0.34413153 -0.18075006 60 36
4.7573452 0.34381223 -0.11486085 53 44
4.7684665 0.34461722 -0.048033047 47 52
4.7726192 0.3591556 0.017409621 47 60
4.771915 0.35910252 0.083727829 43 68
4.7463531 0.49724525 -0.18939872 62 35
4.7634373 0.49904084 -0.12364243 98 43
4.7119727 0.060002133 -0.35899675 54 21
4.7165389 0.059235401 -0.29367125 43 25
4.687047 -0.21728402 -0.47213143 73 14
4.7201829 0.059279919 -0.2282885 55 30
4.68326 -0.21792462 -0.40539402 55 18
4.7279201 0.058549155 -0.16303484 48 38
4.6833825 -0.21874961 -0.34084481 40 22
4.7508259 0.19799474 -0.10626128 74 45
4.704186 0.056621004 -0.58561975 77 9
4.7618737 0.19762142 -0.040451664 40 53
4.7051392 0.05663215 -0.48994681 71 13
4.7670074 0.19700044 0.025618689 43 61
4.7065554 0.055827148 -0.42425224 52 17
4.715116 -0.085385643 -0.21987759 48 31
4.7498012 0.053008918 -0.097921416 45 46
4.7017164 -0.085956261 -0.56057173 70 10
4.7362819 0.19159406 -0.2374724 40 29
4.7391667 0.19171044 -0.17094952 50 37
4.7771912 0.47521138 -0.057383087 64 51
4.6856527 0.6058591 -0.32703778 99 23
4.7022696 0.3282778 -0.50732124 64 12
4.7145872 0.60878044 -0.26293388 53 27
4.7089381 0.32791826 -0.44196272 63 16
4.7327409 0.61029512 -0.19766469 50 34
4.7146959 0.32749301 -0.37651804 64 20
4.7194843 0.32782617 -0.31099999 58 24
4.7433982 0.32782629 -0.24646451 62 28
4.7464294 0.32720378 -0.18055899 51 36
4.7585163 0.32720387 -0.11486085 48 44
4.7646518 0.32762647 -0.047982432 44 52
4.7738438 0.34249386 0.017409621 42 60
4.7731395 0.34244323 0.083727829 39 68
4.7480597 0.48067436 -0.18939872 61 35
4.7651501 0.48241031 -0.12364243 97 43
4.7071681 0.043509535 -0.35861403 37 21
4.7167172 0.04277125 -0.29367125 37 25
4.6812916 -0.23339187 -0.47162703 67 14
4.7203612 0.042803049 -0.2282885 38 30
4.677496 -0.23401803 -0.40495995 54 18
4.7280955 0.042045277 -0.16303484 40 38
4.7514873 0.18141006 -0.10626128 43 45
4.7043552 0.040199984 -0.58561975 56 9
4.7575383 0.18080884 -0.040408902 49 53
4.700336 0.040167011 -0.48942506 42 13
4.752677 0.17979395 0.025537532 43 61
4.7017417 0.039357886 -0.42379993 48 17
4.7013874 -0.10236778 -0.56057173 65 10
4.7319322 0.17487635 -0.2372203 38 29
4.7348137 0.17498253 -0.17076804 48 37
4.768868 0.45757464 -0.057262667 46 51
4.6877389 0.58949941 -0.32703778 90 23
4.6984272 0.31153238 -0.50678205 48 12
4.7792358 0.45773116 0.0091481367 28 59
4.7166834 0.59231979 -0.26293388 44 27
4.7050867 0.31114992 -0.44149303 43 16
4.7348423 0.5937711 -0.19766469 43 34
4.7158103 0.31103364 -0.37651804 55 20
4.7420812 0.59468305 -0.131661 38 42
4.7206001 0.31135008 -0.31099999 54 24
4.739531 0.31093928 -0.24620369 51 28
4.7475433 0.31063363 -0.18055899 45 36
4.7596297 0.31059158 -0.11486085 39 44
4.6734824 0.58272731 -0.39163405 95 19
4.7657666 0.31099275 -0.047982432 33 52
4.7700219 0.32548702 0.017391294 39 60
4.7693181 0.32543892 0.083639696 31 68
4.7546816 0.46458519 -0.18959852 59 35
4.7677484 0.32449561 0.1498718 49 72
4.7668052 0.46577391 -0.12364243 64 43
4.7023063 0.02705121 -0.35823128 37 21
4.7118473 0.026280439 -0.29335815 32 25
4.7204814 0.026325651 -0.2282885 32 30
4.6816249 -0.25061437 -0.40539402 54 18
4.7182202 0.025490301 -0.1626876 34 38
4.7470965 0.16465047 -0.10614872 31 45
4.7044663 0.023778476 -0.58561975 80 9
4.7581406 0.16420084 -0.040408902 38 53
4.7004476 0.023759535 -0.48942506 45 13
4.7018509 0.022945505 -0.42379993 40 17
4.6910758 -0.11852162 -0.55937904 102 10
4.737504 0.15852422 -0.2374724 29 29
4.7353959 0.1584539 -0.17076804 38 37
4.775414 0.44138715 -0.057322875 46 51
4.7046199 0.57495624 -0.32808149 48 23
4.7044473 0.29544201 -0.50732124 39 12
4.7808046 0.4410457 0.0091481367 29 59
4.7187223 0.57585192 -0.26293388 47 27
4.7061439 0.2947242 -0.44149303 49 16
4.7319274 0.57663268 -0.19745618 40 34
4.7118931 0.29425925 -0.37611791 36 20
4.7441282 0.57812643 -0.131661 95 42
4.7166781 0.29455864 -0.31066948 34 24
4.7356043 0.2940833 -0.24594288 34 28
4.7436118 0.29375038 -0.18036792 46 36
4.7556958 0.29366684 -0.11473957 35 44
4.6804338 0.56701219 -0.39205152 46 19
4.7618332 0.29404649 -0.047931816 28 52
4.7661395 0.30851102 0.017372968 34 60
4.7754145 0.3091124 0.083727829 42 68
4.7463255 0.447045 -0.18919893 47 35
4.7584491 0.44819102 -0.1233824 53 43
4.7023716 0.010636937 -0.35823128 29 21
4.7119102 0.0098328646 -0.29335815 31 25
4.7155509 0.009839219 -0.22804512 29 30
4.6707759 -0.26637957 -0.40452591 55 18
4.7182808 0.009020485 -0.1626876 32 38
4.7426462 0.14792375 -0.10603616 32 45
4.7045207 0.0073566781 -0.58561975 83 9
4.7486897 0.14728194 -0.04032338 34 53
4.7054739 0.0073578423 -0.48994681 53 13
4.7019024 0.0065328404 -0.42379993 39 17
4.7005582 -0.1351869 -0.56057173 99 10
4.733037 0.14183725 -0.2372203 30 29
4.7359195 0.14192331 -0.17076804 34 37
4.7769256 0.42471516 -0.057322875 41 51
4.7065983 0.55853051 -0.32808149 39 23
4.7054496 0.27901867 -0.50732124 37 12
4.7773352 0.42391127 0.0091385376 41 59
4.7207041 0.55937696 -0.26293388 37 27
4.7071443 0.27829489 -0.44149303 35 16
4.7388721 0.56070143 -0.19766469 35 34
4.7128911 0.27780989 -0.37611791 32 20
4.7461171 0.56156278 -0.131661 49 42
4.7176771 0.27809259 -0.31066948 31 24
4.7366023 0.27755117 -0.24594288 33 28
4.7446084 0.27719027 -0.18036792 35 36
4.7517014 0.27677336 -0.11461828 36 44
4.682384 0.55067098 -0.39205152 38 19
4.7628303 0.27742282 -0.047931816 29 52
4.7721777 0.2921783 0.017391294 35 60
4.7714739 0.29213515 0.083639696 30 68
4.7478571 0.43047452 -0.18919893 46 35
4.7599845 0.43157819 -0.1233824 49 43
4.7023802 -0.0057781232 -0.35823128 30 21
4.7069259 -0.0066067791 -0.29304504 33 25
4.7155566 -0.0066218423 -0.22804512 32 30
4.674789 -0.28298694 -0.40495995 43 18
4.7132859 -0.0074405051 -0.16251397 33 38
4.7431335 0.13136792 -0.10603616 36 45
4.7045178 -0.0090658646 -0.58561975 72 9
4.7541728 0.13084203 -0.040366143 35 53
4.7004986 -0.0090567451 -0.48942506 51 13
4.7018967 -0.0098805558 -0.42379993 38 17
4.6950955 -0.15143122 -0.55997539 99 10
4.7285118 0.1251834 -0.2369682 32 29
4.7363868 0.12539099 -0.17076804 39 37
4.7733979 0.40761098 -0.057262667 40 51
4.708519 0.54209805 -0.32808149 38 23
4.7063947 0.26259187 -0.50732124 40 12
4.7787857 0.4072327 0.0091385376 43 59
4.7226276 0.5428952 -0.26293388 37 27
4.708087 0.26186222 -0.44149303 35 16
4.7358375 0.54358381 -0.19745618 39 34
4.7138319 0.26135713 -0.37611791 30 20
4.7480483 0.54499233 -0.131661 59 42
4.7136378 0.26134634 -0.31033897 32 24
4.7325563 0.26074043 -0.24568209 36 28
4.7405581 0.26035228 -0.18017684 36 36
4.7526388 0.26018512 -0.11461828 37 44
4.6892281 0.53489053 -0.39246905 42 19
4.7637701 0.26079574 -0.047931816 34 52
4.768177 0.27522981 0.017372968 39 60
4.7674732 0.27518913 0.083551556 32 68
4.7443547 0.41346341 -0.18899916 39 35
4.7614622 0.41496012 -0.1233824 47 43
4.7682223 0.55659699 -0.065698884 23 50
4.7023315 -0.02219246 -0.35823128 38 21
4.7118645 -0.023063101 -0.29335815 41 25
4.7155046 -0.023082163 -0.22804512 38 30
4.7082338 -0.023865862 -0.16234034 39 38
4.7435637 0.1148105 -0.10603616 54 45
4.6994967 -0.025459068 -0.58499742 53 9
4.7446041 0.11400701 -0.040280621 39 53
4.7004385 -0.025464492 -0.48942506 51 13
4.7018337 -0.026293175 -0.42379993 41 17
4.7289195 0.10867706 -0.2369682 39 29
4.7367954 0.10885715 -0.17076804 60 37
4.7747922 0.39094624 -0.057262667 41 51
4.7054262 0.52510291 -0.32773361 38 23
4.707283 0.24616189 -0.50732124 58 12
4.7751946 0.39014035 0.0091289394 48 59
4.7195325 0.52585119 -0.26265562 37 27
4.7089725 0.24542633 -0.44149303 39 16
4.7795877 0.39050075 0.075597502 59 67
4.7377067 0.52704936 -0.19745618 56 34
4.714716 0.24490121 -0.37611791 36 20
