# .PCD v0.7 - Point Cloud Data file format
VERSION 0.7
FIELDS x y z intensity ring
SIZE 4 4 4 4 2
TYPE F F F F U
COUNT 1 1 1 1 1
WIDTH 1228
HEIGHT 1
VIEWPOINT 0 0 0 1 0 0 0
POINTS 1228
DATA ascii
4.4501977 -0.033747829 -0.30790257 50 23
4.4249206 -0.037433065 -0.42957518 38 15
4.4354663 -0.038290083 -0.3686704 38 19
4.4113951 0.10483471 -0.49866074 39 11
4.4755497 0.1040691 -0.19311371 34 33
4.4500527 -0.049281713 -0.30790257 37 23
4.4197869 -0.05282224 -0.42908812 33 15
4.4303241 -0.053715121 -0.36825287 39 19
4.4067678 0.089330532 -0.49809477 41 11
4.4758854 0.08844588 -0.19311371 34 33
4.4348917 -0.064606071 -0.30685884 38 23
4.4245515 -0.068323679 -0.42957518 30 15
4.425127 -0.069104716 -0.36783534 31 19
4.407052 0.073947504 -0.49809477 40 11
4.4711728 0.072736159 -0.1928965 30 33
4.4545879 -0.080434546 -0.30825049 78 23
4.4193106 -0.083676629 -0.42908812 33 15
4.429841 -0.084643058 -0.36825287 31 19
4.412251 0.058633793 -0.49866074 33 11
4.4713998 0.057128407 -0.1928965 33 33
4.4393191 -0.095670097 -0.30720678 74 23
4.4189916 -0.0991024 -0.42908812 39 15
4.4295182 -0.10010557 -0.36825287 42 19
4.4124289 0.043231808 -0.49866074 40 11
4.4186187 -0.11452696 -0.42908812 43 15
4.4341226 -0.11569381 -0.3686704 44 19
4.4125528 0.027829293 -0.49866074 47 11
4.4181919 -0.12995011 -0.42908812 53 15
4.4237309 -0.1308824 -0.36783534 41 19
4.4126229 0.012426442 -0.49866074 55 11
4.4177117 -0.14537169 -0.42908812 60 15
4.4332066 -0.14664677 -0.3686704 103 19
4.4076719 -0.0029774306 -0.49809477 46 11
4.4221501 -0.16096951 -0.42957518 60 15
4.4126024 -0.018380145 -0.49866074 42 11
4.4165893 -0.17620933 -0.42908812 59 15
4.4125109 -0.033782888 -0.49866074 41 11
4.4209185 -0.19183776 -0.42957518 45 15
4.4123669 -0.04918522 -0.49866074 43 11
4.4202223 -0.20726846 -0.42957518 98 15
4.4121675 -0.064586952 -0.49866074 48 11
4.416883 -0.080073737 -0.49922678 42 11
4.4116096 -0.095387876 -0.49866074 49 11
4.4062834 -0.11066618 -0.49809477 62 11
4.415802 -0.12632199 -0.49922678 98 11
4.4054031 -0.14142489 -0.49809477 97 11
4.3990188 0.75415981 -0.26225168 43 26
4.4114699 0.74044383 -0.26284298 45 26
4.409102 0.72423553 -0.26254734 46 26
4.4370675 0.72800988 -0.20176786 33 32
4.416532 0.70962816 -0.26284298 45 26
4.4346499 0.71172988 -0.20154193 42 32
4.4198561 0.69434375 -0.32513598 48 22
4.418982 0.69420725 -0.26284298 47 26
4.4469776 0.69778609 -0.20199381 42 32
4.407464 0.67665374 -0.32404003 42 22
4.4263124 0.67953122 -0.26313865 45 26
4.444448 0.68150598 -0.20176786 40 32
4.4245954 0.66347069 -0.32513598 38 22
4.4286575 0.66407633 -0.26313865 43 26
4.4468002 0.66598779 -0.20176786 34 32
4.4170156 0.6465857 -0.32440534 17 22
4.4260092 0.64789456 -0.26284298 25 26
4.4490972 0.65046149 -0.20176786 14 32
4.4762974 0.6536172 -0.14025165 40 40
4.4044266 0.62984413 -0.38456005 32 18
4.4093709 0.62976164 -0.32367468 17 22
4.4331856 0.63314253 -0.26313865 27 26
4.4562869 0.63562858 -0.20199381 20 32
4.4736042 0.63728738 -0.14009549 42 40
4.4065986 0.61446595 -0.38456005 23 18
4.416482 0.61504996 -0.32404003 20 22
4.435369 0.61766398 -0.26313865 29 26
4.4584785 0.62006938 -0.20199381 28 32
4.4758015 0.62166768 -0.14009549 42 40
4.4037805 0.59841377 -0.38412598 33 18
4.418602 0.59962982 -0.32404003 23 22
4.4374981 0.60217792 -0.26313865 31 26
4.4606156 0.60450256 -0.20199381 20 32
4.4779439 0.60604042 -0.14009549 43 40
4.3900561 0.58174217 -0.44539753 12 14
4.4107809 0.58368737 -0.38456005 41 18
4.4256129 0.5848515 -0.32440534 30 22
4.4395728 0.58668447 -0.26313865 42 26
4.4676514 0.58957779 -0.20221975 25 32
4.4750767 0.58975685 -0.13993931 45 40
4.4964094 0.59255022 -0.077751182 49 48
4.4338117 0.7152769 -0.20931783 55 31
4.387126 0.56578231 -0.44489309 54 14
4.4078507 0.56765527 -0.38412598 51 18
4.4226804 0.56876779 -0.32404003 36 22
4.4415936 0.57118392 -0.26313865 43 26
4.4696817 0.5739792 -0.20221975 31 32
4.477108 0.57413238 -0.13993931 43 40
4.4934907 0.5762195 -0.077664785 42 48
4.4313478 0.69902039 -0.20908317 54 31
4.3940105 0.55107987 -0.44539753 48 14
4.4098053 0.55226558 -0.38412598 47 18
4.4246392 0.55332625 -0.32404003 51 22
4.4435606 0.55567634 -0.26313865 43 26
4.466701 0.55775881 -0.20199381 36 32
4.479085 0.55850089 -0.13993931 43 40
4.5004368 0.56114525 -0.077751182 42 48
4.443634 0.6850639 -0.20955248 46 31
4.3909683 0.53514087 -0.44489309 41 14
4.411706 0.53686905 -0.38412598 46 18
4.4265437 0.53787804 -0.32404003 42 22
4.4454732 0.54016203 -0.26313865 43 26
4.4686208 0.54216373 -0.20199381 42 32
4.4810071 0.54286253 -0.13993931 43 40
4.502368 0.54543239 -0.077751182 40 48
4.4410591 0.6688078 -0.20931783 28 31
4.4632878 0.67214185 -0.14775436 37 39
4.3878694 0.51922995 -0.44438866 49 14
4.4135537 0.52146608 -0.38412598 43 18
4.4283943 0.52242327 -0.32404003 38 22
4.4522886 0.52522177 -0.26343432 28 26
4.4655247 0.52598184 -0.20176786 32 32
4.4878387 0.52779722 -0.14009549 38 40
4.4992785 0.52913296 -0.077664785 20 48
4.5298109 0.53189671 -0.015006077 35 56
4.4433665 0.6533016 -0.20931783 20 31
4.4705515 0.65728199 -0.14791925 41 39
4.3945975 0.50447333 -0.44489309 36 14
4.4153466 0.50605673 -0.38412598 38 18
4.4252357 0.50639927 -0.32367468 23 22
4.4491358 0.50911385 -0.26313865 40 26
4.4673338 0.51039106 -0.20176786 17 32
4.4846878 0.51156628 -0.13993931 42 40
4.5060663 0.51398689 -0.077751182 17 48
4.5316401 0.51608145 -0.015006077 41 56
4.4456196 0.63778734 -0.20931783 20 31
4.4678712 0.64096606 -0.14775436 46 39
4.3913875 0.48858437 -0.44438866 25 14
4.4121356 0.4900955 -0.38369197 25 18
4.4269762 0.49094924 -0.32367468 23 22
4.4459238 0.49303439 -0.26284298 29 26
4.4740534 0.49533954 -0.20199381 25 32
4.4864464 0.49590865 -0.13993931 40 40
4.507833 0.49825466 -0.077751182 20 48
4.5284438 0.4997156 -0.014989495 41 56
4.4527655 0.62295437 -0.20955248 23 31
4.4700813 0.62536639 -0.14775436 46 39
4.4009461 0.73809707 -0.27770403 53 25
4.3980126 0.47378123 -0.44489309 25 14
4.4187717 0.47521973 -0.38412598 23 18
4.4336219 0.47602141 -0.32404003 25 22
4.447618 0.47751221 -0.26284298 25 26
4.4757552 0.47971919 -0.20199381 20 32
4.4881501 0.48024499 -0.13993931 38 40
4.5095448 0.48251632 -0.077751182 23 48
4.53016 0.48390532 -0.014989495 41 56
4.4549131 0.60740751 -0.20955248 25 31
4.4771895 0.61043125 -0.14791925 45 39
4.4949369 0.60325462 -0.085603863 37 47
4.4034953 0.72273046 -0.27770403 55 25
4.3996391 0.45842639 -0.44489309 33 14
4.42661 0.72651559 -0.21684973 54 30
4.420404 0.45979241 -0.38412598 34 18
4.435257 0.46054229 -0.32404003 29 22
4.4542232 0.4624956 -0.26313865 34 26
4.4774027 0.46409297 -0.20199381 23 32
4.489799 0.46457553 -0.13993931 37 40
4.5112014 0.46677217 -0.077751182 20 48
4.5318217 0.46808913 -0.014989495 42 56
4.5365653 0.46857515 0.048174541 32 64
4.457006 0.59185326 -0.20955248 31 31
4.4743385 0.59414434 -0.14775436 49 39
4.4920583 0.58691591 -0.085508749 50 47
4.4109192 0.70814431 -0.27801713 49 25
4.4012127 0.443066 -0.44489309 39 14
4.4241877 0.71026963 -0.21660635 48 30
4.4219823 0.44435954 -0.38412598 40 18
4.4368377 0.44505754 -0.32404003 34 22
4.4558105 0.44694462 -0.26313865 43 26
4.4789948 0.44846109 -0.20199381 30 32
4.4913931 0.44890037 -0.13993931 43 40
4.5128031 0.45102227 -0.077751182 25 48
4.5284524 0.45177504 -0.014972913 42 56
4.5381737 0.45273677 0.048174541 42 64
4.4590449 0.5762918 -0.20955248 30 31
4.4763856 0.57852238 -0.14775436 48 39
4.4990392 0.57185954 -0.085603863 54 47
4.4133644 0.69274294 -0.27801713 49 25
4.4027324 0.42770022 -0.44489309 51 14
4.4365082 0.6963672 -0.21709311 45 30
4.4235063 0.42892122 -0.38412598 49 18
4.438364 0.4295674 -0.32404003 42 22
4.4573436 0.43138826 -0.26313865 46 26
4.4805331 0.43282375 -0.20199381 33 32
4.4929328 0.43321973 -0.13993931 42 40
4.5143499 0.43526688 -0.077751182 30 48
4.5300016 0.43596503 -0.014972913 42 56
4.5397258 0.43689284 0.048174541 41 64
4.4610295 0.5607233 -0.20955248 34 31
4.4734192 0.56227309 -0.14758945 49 39
4.4960461 0.55554134 -0.085508749 45 47
4.3965898 0.67518586 -0.33871228 43 21
4.4206877 0.67808801 -0.27833018 44 25
4.409152 0.41278872 -0.44539753 50 14
4.4339752 0.6801213 -0.21684973 46 30
4.4249763 0.41347769 -0.38412598 49 18
4.4564166 0.68275928 -0.1553953 30 38
4.4348707 0.41361308 -0.32367468 45 22
4.4538517 0.41536725 -0.26284298 43 26
4.4770427 0.4167223 -0.20176786 36 32
4.4894409 0.41707566 -0.13978311 43 40
4.515842 0.41950622 -0.077751182 41 48
4.5314956 0.42014974 -0.014972913 42 56
4.5362444 0.42058608 0.048121307 40 64
4.4629593 0.54514802 -0.20955248 41 31
4.4753542 0.54665452 -0.14758945 49 39
4.4979577 0.53984386 -0.085508749 37 47
4.3989196 0.65983474 -0.33871228 46 21
4.5185671 0.54230499 -0.022853004 35 55
4.423028 0.66265285 -0.27833018 36 25
4.4105663 0.3973954 -0.44539753 48 14
4.4363222 0.66463971 -0.21684973 36 30
4.421432 0.39758721 -0.38369197 45 18
4.4587727 0.66719937 -0.1553953 49 38
4.4362874 0.39813 -0.32367468 41 22
4.4552746 0.39981788 -0.26284298 43 26
4.4784698 0.40109199 -0.20176786 32 32
4.4908695 0.40140203 -0.13978311 43 40
4.5122986 0.40329945 -0.077664785 38 48
4.5279541 0.40388915 -0.014956332 42 56
4.5426655 0.40518916 0.048174541 33 64
4.4598751 0.52898073 -0.20931783 20 31
4.5466762 0.40394399 0.11146815 28 70
4.4821978 0.5316149 -0.14775436 49 39
4.4948483 0.52356434 -0.085413627 20 47
4.4110627 0.64591682 -0.33947772 17 21
4.520432 0.52652901 -0.022853004 46 55
4.4253144 0.64720953 -0.27833018 46 25
4.40697 0.38157228 -0.44489309 43 14
4.4386153 0.64914995 -0.21684973 17 30
4.4277549 0.38257569 -0.38412598 40 18
4.4610744 0.65163124 -0.1553953 40 38
4.4376502 0.38264203 -0.32367468 36 22
4.4566431 0.3842636 -0.26284298 33 26
4.4748664 0.38503277 -0.20154193 25 32
4.4872642 0.38530016 -0.13962694 36 40
4.5086975 0.3871226 -0.077578396 20 48
4.5343184 0.38850394 -0.014972913 36 56
4.5390701 0.38890713 0.048121307 14 64
4.4666567 0.51397759 -0.20955248 20 31
4.548058 0.3880707 0.11146815 43 70
4.4840264 0.51596588 -0.14775436 41 39
4.3807826 0.50337327 -0.52538687 41 10
4.501617 0.50842929 -0.085508749 20 47
4.4083548 0.62981194 -0.339095 34 21
4.522243 0.51074654 -0.022853004 33 55
4.432487 0.63246155 -0.27864328 26 25
4.4082751 0.36618677 -0.44489309 31 14
4.4457984 0.63435608 -0.21709311 17 30
4.4290638 0.36711761 -0.38412598 31 18
4.4633222 0.63605523 -0.1553953 42 38
4.4389586 0.36714938 -0.32367468 17 22
4.4579568 0.36870468 -0.26284298 32 26
4.4761829 0.36941025 -0.20154193 29 32
4.4836001 0.36922833 -0.13947074 41 40
4.3988581 0.62454236 -0.40028059 43 17
4.5100217 0.37138197 -0.077578396 17 48
4.5306635 0.3722685 -0.014956332 41 56
4.5404 0.37306046 0.048121307 17 64
4.4634595 0.4978323 -0.20931783 25 31
4.5394216 0.37138572 0.1112221 30 70
4.4808331 0.49975958 -0.14758945 43 39
4.382513 0.48807842 -0.52538687 28 10
4.5033641 0.49271265 -0.085508749 23 47
4.4154644 0.61510628 -0.33947772 20 21
4.5190272 0.49441698 -0.022827694 35 55
4.4297247 0.61629945 -0.27833018 28 25
4.4144859 0.35118711 -0.44539753 17 14
4.4479861 0.61883342 -0.21709311 23 30
4.4303184 0.35165507 -0.38412598 23 18
4.4655151 0.62047148 -0.1553953 40 38
4.4402132 0.35165229 -0.32367468 20 22
4.4542408 0.3527514 -0.26254734 23 26
4.4774456 0.35378316 -0.20154193 28 32
4.4898443 0.35396403 -0.13962694 38 40
4.401011 0.60918361 -0.40028059 34 17
4.5112906 0.35563681 -0.077578396 20 48
4.5269513 0.35606334 -0.014939751 27 56
4.5416751 0.35720924 0.048121307 20 64
4.4701357 0.48278219 -0.20955248 23 31
4.5506563 0.35631007 0.11146815 40 70
4.4825501 0.48411551 -0.14758945 33 39
4.4927497 0.61865199 -0.093456291 35 46
4.3792543 0.47224841 -0.52479059 34 10
4.4286714 0.7424444 -0.2248677 51 29
4.5050569 0.47698998 -0.085508749 23 47
4.4225249 0.60035849 -0.33986047 20 21
4.5256982 0.47916314 -0.022853004 38 55
4.4367943 0.60150176 -0.27864328 52 25
4.4156847 0.33577552 -0.44539753 29 14
4.5306334 0.47888318 0.040232796 29 63
4.450119 0.60330331 -0.21709311 23 30
4.4364853 0.33656082 -0.38456005 28 18
4.4726057 0.6055488 -0.15556893 38 38
4.4463863 0.33652309 -0.32404003 23 22
4.4604225 0.33757353 -0.26284298 26 26
4.478653 0.33815181 -0.20154193 23 32
4.4960365 0.3386606 -0.13978311 47 40
4.403111 0.59381753 -0.40028059 49 17
4.5125046 0.33988729 -0.077578396 20 48
4.5281663 0.34025916 -0.014939751 32 56
4.5379081 0.34098312 0.048068073 23 64
4.4717941 0.46717557 -0.20955248 25 31
4.5568581 0.34079185 0.11159119 30 70
4.4842134 0.46846554 -0.14758945 36 39
4.4899268 0.60230273 -0.093352452 45 46
4.3858137 0.45747107 -0.52538687 22 10
4.4312358 0.72698092 -0.2248677 52 29
4.5066938 0.46126148 -0.085508749 30 47
4.4295354 0.58556885 -0.34024316 43 21
4.5223684 0.46285641 -0.022827694 45 55
4.4388671 0.58601081 -0.27864328 35 25
4.4168301 0.32035989 -0.44539753 35 14
4.5273037 0.46256018 0.04018829 45 63
4.452198 0.58776581 -0.21709311 25 30
4.4326649 0.3207173 -0.38412598 33 18
4.469738 0.58928138 -0.1553953 49 38
4.4425597 0.32064548 -0.32367468 30 22
4.4615736 0.32200173 -0.26284298 36 26
4.4847879 0.32287079 -0.20176786 28 32
4.3892279 0.57713771 -0.46072742 31 13
4.497191 0.32296443 -0.13978311 41 40
4.4051566 0.57844418 -0.40028059 29 17
4.5136633 0.32413363 -0.077578396 25 48
4.529326 0.32445082 -0.014939751 42 56
4.5440578 0.3254939 0.048121307 25 64
4.4733973 0.45156327 -0.20955248 29 31
4.4858212 0.45280987 -0.14758945 52 39
4.492002 0.58662629 -0.093352452 48 46
4.392323 0.44265372 -0.52598327 29 10
4.4337463 0.71150857 -0.2248677 40 29
4.5082769 0.44552737 -0.085508749 28 47
4.4266086 0.56946903 -0.33986047 30 21
4.5239568 0.44706762 -0.022827694 48 55
4.4408855 0.57051271 -0.27864328 40 25
4.4179211 0.30494028 -0.44539753 45 14
4.5338669 0.44724199 0.040232796 47 63
4.4542227 0.57222122 -0.21709311 29 30
4.4337578 0.30524242 -0.38412598 42 18
4.4717679 0.57367551 -0.1553953 50 38
4.4436522 0.30513605 -0.32367468 36 22
4.4626703 0.30642593 -0.26284298 46 26
4.4858875 0.30721402 -0.20176786 31 32
4.38135 0.56055433 -0.45968384 53 13
4.498291 0.30726436 -0.13978311 42 40
4.4071493 0.56306386 -0.40028059 44 17
4.5197554 0.3087126 -0.077664785 30 48
4.5304313 0.30863857 -0.014939751 42 56
4.5451665 0.30963019 0.048121307 30 64
4.4749465 0.43594545 -0.20955248 32 31
4.4873743 0.43714869 -0.14758945 49 39
4.4940224 0.5709427 -0.093352452 46 46
4.3889003 0.42684141 -0.52538687 53 10
4.436203 0.69602758 -0.2248677 41 29
4.4537134 0.69877273 -0.16242018 32 37
4.5098042 0.42978784 -0.085508749 44 47
4.4236221 0.55339676 -0.33947772 34 21
4.5254898 0.43127334 -0.022827694 48 55
4.4428496 0.55500764 -0.27864328 49 25
4.4189587 0.28951702 -0.44539753 49 14
4.5353999 0.43141311 0.040232796 48 63
4.4561925 0.55666959 -0.21709311 41 30
4.4347963 0.2897639 -0.38412598 50 18
4.4737434 0.55806261 -0.1553953 52 38
4.4446902 0.28962299 -0.32367468 50 22
4.4637132 0.29084647 -0.26284298 43 26
4.4819484 0.29123378 -0.20154193 38 32
4.3931499 0.54648125 -0.46072742 51 13
4.4993358 0.2915605 -0.13978311 42 40
4.4041462 0.5470646 -0.39982834 47 17
4.5208049 0.29293379 -0.077664785 31 48
4.5314808 0.29282251 -0.014939751 43 56
4.5412292 0.2934444 0.048068073 31 64
4.4764409 0.4203223 -0.20955248 39 31
4.488873 0.42148215 -0.14758945 45 39
4.4959879 0.55525219 -0.093352452 43 46
4.3854208 0.41105846 -0.52479059 44 10
4.5216589 0.55841327 -0.030767061 20 54
4.4386058 0.68053812 -0.2248677 46 29
4.4511862 0.68246549 -0.16223872 52 37
4.5112772 0.41404304 -0.085508749 36 47
4.4255271 0.53795207 -0.33947772 39 21
4.526968 0.41547376 -0.022827694 49 55
4.4447603 0.53949583 -0.27864328 41 25
4.4199424 0.27409023 -0.44539753 49 14
4.531899 0.41512585 0.04018829 45 63
4.4531503 0.54051113 -0.21684973 39 30
4.43578 0.2742818 -0.38412598 44 18
4.4806247 0.54304242 -0.15556893 47 38
4.4456739 0.27410635 -0.32367468 43 22
4.4647012 0.27526343 -0.26284298 43 26
4.4779525 0.27528477 -0.20131598 43 32
4.3900938 0.53054816 -0.46020564 43 13
4.5003266 0.2758531 -0.13978311 43 40
4.4109726 0.53228265 -0.40028059 42 17
4.5168099 0.27684975 -0.077578396 40 48
4.5324755 0.2770029 -0.014939751 43 56
4.5472174 0.27789164 0.048121307 36 64
4.4729066 0.40424746 -0.20931783 37 31
4.4853392 0.40536362 -0.14742453 46 39
4.4978991 0.53955483 -0.093352452 38 46
4.396718 0.39663401 -0.52598327 41 10
4.5186157 0.54203248 -0.030733025 42 54
4.4409542 0.66504037 -0.2248677 25 29
4.4584832 0.66766322 -0.16242018 31 37
4.5077152 0.39785665 -0.085413627 25 47
4.4273777 0.52250081 -0.33947772 38 21
4.5283904 0.39966917 -0.022827694 43 55
4.4466162 0.52397746 -0.27864328 34 25
4.4208722 0.25866008 -0.44539753 47 14
4.5333204 0.39930406 0.04018829 34 63
4.45997 0.52554619 -0.21709311 20 30
4.4367108 0.25879636 -0.38412598 42 18
4.4824929 0.52739877 -0.15556893 41 38
4.4466033 0.25858638 -0.32367468 40 22
4.4656343 0.25967702 -0.26284298 29 26
4.4788861 0.25965214 -0.20131598 38 32
4.3869801 0.51464301 -0.45968384 39 13
4.4962726 0.25985819 -0.13962694 39 40
4.4078584 0.51630473 -0.39982834 37 17
4.5127578 0.26079717 -0.077492014 31 48
4.5334148 0.26117995 -0.014939751 43 56
4.4742904 0.38863167 -0.20931783 20 31
4.4867268 0.38970441 -0.14742453 45 39
4.4947891 0.52327466 -0.093248606 17 46
4.3980756 0.38128418 -0.52598327 40 10
4.5204802 0.52625632 -0.030733025 43 54
4.4432487 0.64953446 -0.2248677 17 29
4.455842 0.65137392 -0.16223872 42 37
4.5090761 0.38211942 -0.085413627 29 47
4.4291749 0.50704318 -0.33947772 36 21
4.524776 0.38344049 -0.022802388 38 55
4.4484181 0.50845265 -0.27864328 46 25
4.4167805 0.24295774 -0.44489309 42 14
4.539669 0.38389575 0.040232796 17 63
4.4568152 0.50940937 -0.21684973 20 30
4.4276395 0.24277078 -0.38325793 39 18
4.4743767 0.5106191 -0.15522167 39 38
4.4424996 0.24279532 -0.32330936 33 22
4.4665136 0.24408747 -0.26284298 32 26
4.4797649 0.2440163 -0.20131598 17 32
4.3887501 0.4993265 -0.45968384 40 13
4.4971528 0.24416168 -0.13962694 42 40
4.4096336 0.50091535 -0.39982834 35 17
4.5086489 0.24477625 -0.077405617 25 48
4.5293059 0.24508773 -0.01492317 45 56
4.4706421 0.37259924 -0.20908317 20 31
4.48806 0.3740404 -0.14742453 38 39
4.5015559 0.50814068 -0.093352452 14 46
4.3993797 0.36592972 -0.52598327 23 10
4.5222898 0.51047367 -0.030733025 36 54
4.4454889 0.63402069 -0.2248677 17 29
4.4630356 0.6365211 -0.16242018 36 37
4.5053997 0.36597568 -0.085318521 23 47
4.4309177 0.49157941 -0.33947772 34 21
4.5260868 0.36764374 -0.022802388 39 55
4.4501657 0.49292165 -0.27864328 28 25
4.4225702 0.2277905 -0.44539753 30 14
4.5409808 0.368047 0.040232796 21 63
4.4585662 0.49384907 -0.21684973 23 30
4.4384098 0.22781621 -0.38412598 25 18
4.4761314 0.49499756 -0.15522167 33 38
4.4483008 0.22753717 -0.32367468 27 22
4.4860663 0.62942088 -0.10119586 30 45
4.467339 0.22849494 -0.26284298 35 26
4.375392 0.48234764 -0.54765719 8 9
4.4805894 0.22837754 -0.20131598 25 32
4.3954086 0.4845469 -0.46020564 32 13
4.4929862 0.22821283 -0.13947074 40 40
4.4113555 0.48551977 -0.39982834 28 17
4.5144687 0.22928607 -0.077492014 28 48
4.5351281 0.22952464 -0.014939751 49 56
4.4719157 0.3569915 -0.20908317 23 31
4.4843569 0.35797718 -0.14725962 34 39
4.5033026 0.49242425 -0.093352452 17 46
4.4006305 0.35057077 -0.52598327 22 10
4.519074 0.49414313 -0.03069899 35 54
4.5290041 0.4952254 0.032344162 14 62
4.452621 0.6191864 -0.22511978 30 29
4.4602814 0.6202507 -0.16223872 30 37
4.4179583 0.74352634 -0.23212001 40 28
4.5066504 0.35024664 -0.085318521 23 47
4.4326067 0.47610962 -0.33947772 23 21
4.5273428 0.35184246 -0.022802388 29 55
4.4518595 0.47738469 -0.27864328 26 25
4.4233389 0.21235147 -0.44539753 29 14
4.5372534 0.35181019 0.04018829 23 63
4.4652295 0.4788135 -0.21709311 20 30
4.439178 0.21232189 -0.38412598 23 18
4.4778328 0.47936994 -0.15522167 38 38
4.4440866 0.21177515 -0.32330936 23 22
4.4832835 0.6130811 -0.1010833 49 45
4.4631238 0.21266626 -0.26254734 23 26
4.3622489 0.46549788 -0.54579014 54 9
4.4863491 0.21296865 -0.20154193 31 32
4.4020181 0.46972698 -0.46072742 28 13
4.4937553 0.21252801 -0.13947074 33 40
4.4179745 0.47064397 -0.40028059 35 17
4.5102477 0.21329425 -0.077405617 29 48
4.5309067 0.2134615 -0.01492317 43 56
4.4681544 0.34100237 -0.20884851 28 31
4.490562 0.34269899 -0.14742453 38 39
4.5049939 0.4767018 -0.093352452 17 46
4.4018273 0.33520755 -0.52598327 26 10
4.520771 0.47836563 -0.03069899 29 54
4.5356774 0.47993761 0.032379944 42 62
4.4547553 0.60364008 -0.22511978 20 29
4.4673705 0.60534799 -0.16242018 38 37
4.4205265 0.72810018 -0.23212001 54 28
4.5078454 0.33451337 -0.085318521 25 47
4.4342418 0.46063405 -0.33947772 39 21
4.5235567 0.33566988 -0.022777081 33 55
4.4534988 0.46184188 -0.27864328 32 25
4.4240532 0.19690984 -0.44539753 33 14
4.5334673 0.33560389 0.040143784 25 63
4.4668736 0.46322399 -0.21709311 23 30
4.4398918 0.19682497 -0.38412598 30 18
4.4794788 0.46373647 -0.15522167 49 38
4.4497809 0.19647688 -0.32367468 29 22
4.4903512 0.59808713 -0.10119586 54 45
4.4638386 0.19708574 -0.26254734 31 26
4.3934579 0.45331231 -0.54952419 47 9
4.4870648 0.19730707 -0.20154193 25 32
4.398684 0.45384961 -0.46020564 30 13
4.4944696 0.19684058 -0.13947074 34 40
4.4195905 0.45521948 -0.40028059 33 17
4.5159593 0.1977638 -0.077492014 31 48
4.474299 0.32576323 -0.20908317 28 31
4.4917307 0.3270219 -0.14742453 49 39
4.5066304 0.4609735 -0.093352452 25 46
4.4029708 0.31984025 -0.52598327 29 10
4.5224133 0.46258229 -0.03069899 41 54
4.5323505 0.46359515 0.032344162 42 62
4.4568348 0.58808637 -0.22511978 28 29
4.4694562 0.58975023 -0.16242018 51 37
4.4093151 0.71203119 -0.29348353 57 24
4.4279709 0.71346015 -0.23238082 50 28
4.508986 0.31877601 -0.085318521 34 47
4.4358225 0.44515285 -0.33947772 43 21
4.5247011 0.31987768 -0.022777081 44 55
4.4550838 0.44629347 -0.27864328 37 25
4.4247131 0.1814658 -0.44539753 38 14
4.5395985 0.32012591 0.04018829 34 63
4.4684629 0.44762892 -0.21709311 29 30
4.4405518 0.18132566 -0.38412598 36 18
4.486042 0.44859275 -0.1553953 52 38
4.4554219 0.18114145 -0.32404003 34 22
4.4874539 0.58176708 -0.1010833 47 45
4.4694862 0.18170141 -0.26284298 39 26
4.3752661 0.43601289 -0.5470348 53 9
4.4877257 0.1816431 -0.20154193 31 32
4.4002414 0.4384926 -0.46020564 35 13
4.4951291 0.18115075 -0.13947074 43 40
4.4211526 0.43978947 -0.40028059 38 17
4.5116267 0.18180183 -0.077405617 33 48
4.4803915 0.31048533 -0.20931783 31 31
4.4928451 0.31134087 -0.14742453 53 39
4.5032368 0.44475007 -0.093248606 30 46
4.4040599 0.30446908 -0.52598327 35 10
4.5240006 0.44679329 -0.03069899 42 54
4.5339413 0.44777149 0.032344162 43 62
4.4588604 0.5725255 -0.22511978 31 29
4.4714875 0.57414532 -0.16242018 54 37
4.421629 0.69819295 -0.29414448 45 24
4.4304347 0.69799936 -0.23238082 54 28
4.5150585 0.30336696 -0.085413627 30 47
4.4373493 0.42966625 -0.33947772 47 21
4.5257897 0.30408162 -0.022777081 51 55
4.4566145 0.43073958 -0.27864328 42 25
4.4253197 0.16601959 -0.44539753 51 14
4.540689 0.30427778 0.04018829 43 63
4.4699984 0.43202832 -0.21709311 31 30
4.4411578 0.16582415 -0.38412598 47 18
4.4875808 0.4329308 -0.1553953 54 38
4.4510441 0.16540702 -0.32367468 41 22
4.4894576 0.56609952 -0.1010833 71 45
4.4700937 0.16609888 -0.26284298 47 26
4.3718228 0.42026475 -0.54641247 57 9
4.4883332 0.1659769 -0.20154193 36 32
4.4066958 0.42360422 -0.46072742 48 13
4.4957337 0.16545871 -0.13947074 44 40
4.4226604 0.42435408 -0.40028059 45 17
4.5172296 0.1662319 -0.077492014 36 48
4.4764643 0.29451904 -0.20908317 36 31
4.4939041 0.295656 -0.14742453 50 39
4.5047622 0.42902815 -0.093248606 32 46
4.4050961 0.28909418 -0.52598327 42 10
4.5255327 0.43099889 -0.03069899 45 54
4.5354767 0.43194237 0.032344162 43 62
4.4608321 0.55695772 -0.22511978 38 29
4.5545707 0.43295193 0.095870793 17 69
4.4685068 0.55791497 -0.16223872 68 37
4.4092479 0.68046963 -0.29315302 49 24
4.4328442 0.68252999 -0.23238082 48 28
4.4554939 0.68522418 -0.17100561 41 36
4.5160899 0.28760463 -0.085413627 45 47
4.4338579 0.41371298 -0.339095 41 21
4.526824 0.28828183 -0.022777081 48 55
4.4531217 0.41471949 -0.27833018 43 25
4.4258723 0.15057132 -0.44539753 49 14
4.5367332 0.28811198 0.040143784 38 63
4.4665065 0.41596115 -0.21684973 34 30
4.4367313 0.15015633 -0.38369197 48 18
4.4791131 0.41634214 -0.15504804 54 38
4.44661 0.14970537 -0.32330936 49 22
4.4963679 0.55103236 -0.10119586 67 45
4.4656577 0.15033059 -0.26254734 46 26
4.3930235 0.40682441 -0.5489018 56 9
4.5073571 0.55157936 -0.038527433 52 53
4.4838924 0.15014568 -0.20131598 39 32
4.4081473 0.40821943 -0.46072742 45 13
4.4962845 0.14976466 -0.13947074 48 40
4.4241152 0.40891352 -0.40028059 47 17
4.5127859 0.15030055 -0.077405617 36 48
4.4774647 0.27889147 -0.20908317 43 31
4.4949088 0.27996758 -0.14742453 46 39
4.5112104 0.4137558 -0.093352452 40 46
4.4060779 0.27371579 -0.52598327 44 10
4.5270095 0.41519919 -0.03069899 47 54
4.5369568 0.41610798 0.032344162 43 62
4.462749 0.54138315 -0.22511978 41 29
4.5510755 0.41659686 0.095765203 41 69
4.4704266 0.54231358 -0.16223872 44 37
4.515543 0.6807577 -0.36371404 36 20
4.4214625 0.66656297 -0.293814 43 24
4.4351993 0.66705233 -0.23238082 47 28
4.4529176 0.66892451 -0.17081453 37 36
4.5120769 0.27154145 -0.085318521 37 47
4.4352751 0.39823341 -0.339095 37 21
4.5278025 0.27247849 -0.022777081 49 55
4.4545422 0.39917266 -0.27833018 38 25
4.4263711 0.13512123 -0.44539753 50 14
4.5377111 0.27227408 0.040143784 44 63
4.4679308 0.40036759 -0.21684973 38 30
4.4372287 0.13466834 -0.38369197 45 18
4.4855165 0.40114796 -0.15522167 44 38
4.4471059 0.13418289 -0.32330936 43 22
4.4933004 0.53474361 -0.1010833 38 45
4.4661551 0.13474162 -0.26254734 45 26
4.3944168 0.39148739 -0.5489018 42 9
4.5092554 0.53584236 -0.038527433 43 53
4.4843898 0.13449307 -0.20131598 35 32
4.4095459 0.39282963 -0.46072742 40 13
4.4967794 0.13406879 -0.13947074 48 40
4.4255152 0.39346796 -0.40028059 37 17
4.4784112 0.26326048 -0.20908317 31 31
4.4958587 0.26427567 -0.14742453 46 39
4.507647 0.39756876 -0.093248606 38 46
4.4070067 0.25833404 -0.52598327 41 10
4.5234504 0.39895695 -0.030664958 43 54
4.5383816 0.4002685 0.032344162 37 62
4.4596524 0.52521843 -0.2248677 20 29
4.5425429 0.39983505 0.095554039 42 69
4.4722924 0.52670556 -0.16223872 42 37
4.3946228 0.64683264 -0.35371092 28 20
4.4237623 0.65112513 -0.293814 41 24
4.4424415 0.65229255 -0.23264164 38 28
4.4601688 0.65410244 -0.17100561 45 36
4.5129967 0.2557897 -0.085318521 23 47
4.4416051 0.38317573 -0.33947772 43 21
4.5287261 0.25667185 -0.022777081 49 55
4.4559083 0.38362098 -0.27833018 34 25
4.4218426 0.11953925 -0.44489309 48 14
4.4643254 0.38434261 -0.21660635 23 30
4.4376717 0.11917869 -0.38369197 32 18
4.4868898 0.38548815 -0.15522167 40 38
4.4475465 0.11865877 -0.32330936 40 22
4.4951391 0.51905578 -0.1010833 23 45
4.466598 0.119151 -0.26254734 34 26
4.3957567 0.37614566 -0.5489018 53 9
4.5110984 0.52009887 -0.038527433 39 53
4.4848313 0.11883881 -0.20131598 34 32
4.4108901 0.37743506 -0.46072742 25 13
4.4872284 0.11811662 -0.13915838 50 40
4.4268618 0.37801766 -0.40028059 40 17
4.4743161 0.24735363 -0.20884851 20 31
4.4967537 0.2485806 -0.14742453 41 39
4.5040269 0.38141167 -0.093144774 20 46
4.4078817 0.24294914 -0.52598327 37 10
4.524816 0.3831647 -0.030664958 43 54
4.5347691 0.384004 0.032308385 14 62
4.4664197 0.51021427 -0.22511978 20 29
4.5439105 0.38397619 0.095554039 41 69
4.4790683 0.51165766 -0.16242018 41 37
4.4363198 0.63716167 -0.3569119 17 20
4.4210701 0.63496953 -0.29348353 30 24
4.4446912 0.63678151 -0.23264164 17 28
4.4624252 0.63852954 -0.17100561 40 36
4.5088701 0.23977233 -0.085223407 25 47
4.4429154 0.36766928 -0.33947772 37 21
4.524601 0.24059951 -0.022751771 41 55
4.4572206 0.36806464 -0.27833018 27 25
4.4222331 0.10410342 -0.44489309 42 14
4.4706173 0.36916605 -0.21684973 32 30
4.4380612 0.10368761 -0.38369197 35 18
4.4832277 0.36941504 -0.15504804 36 38
4.4429488 0.10302184 -0.32294407 28 22
4.4969239 0.50336164 -0.1010833 28 45
4.4669867 0.10355894 -0.26254734 40 26
4.3970428 0.36079934 -0.5489018 51 9
4.5128865 0.50434899 -0.038527433 31 53
4.485219 0.1031831 -0.20131598 25 32
4.4171371 0.36244079 -0.4612492 38 13
4.5329494 0.50578779 0.024482487 12 61
4.4976063 0.10267234 -0.13947074 47 40
4.4281545 0.36256272 -0.40028059 32 17
4.4801402 0.23198913 -0.20908317 20 31
4.4926038 0.23262705 -0.14725962 42 39
4.5053306 0.36568737 -0.093144774 20 46
4.4087029 0.22756128 -0.52598327 25 10
4.5261259 0.36736783 -0.030664958 41 54
4.5410657 0.3685751 0.032344162 17 62
4.4632106 0.49407166 -0.2248677 30 29
4.5402403 0.36771086 0.095448449 37 69
4.4758606 0.49547049 -0.16223872 32 37
4.4039669 0.61682874 -0.35411102 17 20
4.4232597 0.6195333 -0.29348353 34 24
4.4468865 0.62126279 -0.23264164 17 28
4.4596786 0.62225789 -0.17081453 42 36
4.4815202 0.62451071 -0.10891768 37 44
4.5096793 0.22403197 -0.085223407 29 47
4.4441719 0.35215837 -0.33947772 20 21
4.5304074 0.22504936 -0.022777081 52 55
4.458478 0.35250378 -0.27833018 28 25
4.4225693 0.088666305 -0.44489309 28 14
4.4619212 0.35277474 -0.21636297 23 30
4.4334149 0.088100486 -0.38325793 25 18
4.4844894 0.3537634 -0.15504804 34 38
4.4432817 0.087512426 -0.32294407 20 22
4.4986539 0.48766142 -0.1010833 27 45
4.4623313 0.087871544 -0.26225168 29 26
4.3933296 0.3450619 -0.54827946 43 9
4.5146194 0.48859301 -0.038527433 29 53
4.4755635 0.087339573 -0.20086409 30 32
4.4134173 0.3466323 -0.46072742 23 13
4.5297155 0.48942521 0.024455434 46 61
4.4879436 0.086787239 -0.13915838 42 40
4.4293928 0.34710339 -0.40028059 31 17
4.4759336 0.21611123 -0.20884851 20 31
4.4933882 0.21694352 -0.14725962 35 39
4.5065799 0.3499586 -0.093144774 20 46
4.4045115 0.21193507 -0.52538687 26 10
4.5223956 0.35118112 -0.030630924 31 54
4.5323544 0.35195091 0.032272603 20 62
4.4649076 0.47848913 -0.2248677 20 29
4.5265441 0.35070705 0.095131703 23 69
4.4775624 0.4798438 -0.16223872 34 37
4.3858681 0.59946871 -0.41425198 61 16
4.4110312 0.6021269 -0.35451114 23 20
4.4253955 0.6040895 -0.29348353 26 24
4.449028 0.60573643 -0.23264164 20 28
4.471725 0.60803449 -0.17119667 36 36
4.4787202 0.60819036 -0.1087964 35 44
4.5054398 0.20806123 -0.085128285 30 47
4.4503455 0.33701783 -0.33986047 23 21
4.5261703 0.20900624 -0.022751771 39 55
4.4596815 0.33693862 -0.27833018 28 25
4.422852 0.073228121 -0.44489309 29 14
4.4681058 0.33757207 -0.21660635 23 30
4.4386764 0.072701827 -0.38369197 28 18
4.4856968 0.33810744 -0.15504804 41 38
4.4485455 0.072078526 -0.32330936 25 22
4.5003285 0.47195521 -0.1010833 23 45
4.4626107 0.072294571 -0.26225168 29 26
4.3945074 0.32972422 -0.54827946 53 9
4.5162973 0.47283107 -0.038527433 31 53
4.4758415 0.071716413 -0.20086409 29 32
4.4146008 0.33122447 -0.46072742 28 13
4.5363698 0.4741298 0.024482487 29 61
4.4355435 0.33200973 -0.4007329 36 17
4.37817 0.4568415 -0.58640009 31 8
4.4766607 0.200486 -0.20884851 25 31
4.4891262 0.20103678 -0.14709473 34 39
4.5077734 0.33422559 -0.093144774 23 46
4.4151435 0.19699569 -0.52657962 28 10
4.5235934 0.33539289 -0.030630924 36 54
4.533555 0.33612794 0.032272603 25 62
4.4665508 0.46290076 -0.2248677 23 29
4.5377116 0.33563828 0.095342867 23 69
4.4742398 0.46369669 -0.16205724 39 37
4.4027367 0.586128 -0.41566098 57 16
4.418047 0.58738333 -0.35491127 23 20
4.4274774 0.58863825 -0.29348353 30 24
4.4511156 0.59020281 -0.23264164 25 28
4.4688668 0.59176499 -0.17100561 34 36
4.4907265 0.5938648 -0.10903897 47 44
4.5111337 0.19254327 -0.085223407 30 47
4.4465222 0.32112387 -0.33947772 39 21
4.4608302 0.32136941 -0.27833018 33 25
4.4230804 0.057789043 -0.44489309 34 14
4.4742379 0.32233047 -0.21684973 25 30
4.4389033 0.057207506 -0.38369197 33 18
4.4868503 0.32244739 -0.15504804 52 38
4.44877 0.056549765 -0.32330936 30 22
4.5019484 0.45624325 -0.1010833 28 45
4.4628358 0.056716707 -0.26225168 36 26
4.3956318 0.31438252 -0.54827946 53 9
4.5179205 0.45706341 -0.038527433 43 53
4.4610806 0.055917155 -0.20018625 31 32
4.41573 0.31581262 -0.46072742 32 13
4.5330224 0.45779017 0.024455434 48 61
4.4317083 0.31617215 -0.40028059 34 17
4.3846688 0.44205248 -0.5870657 36 8
4.4823236 0.18506135 -0.20908317 30 31
4.4947929 0.18556872 -0.14725962 53 39
4.5138993 0.31883892 -0.093248606 25 46
4.4158044 0.18158278 -0.52657962 31 10
4.5247369 0.31960055 -0.030630924 42 54
4.5396881 0.32065132 0.032308385 31 62
4.4731083 0.44780362 -0.22511978 29 29
4.5338688 0.3194471 0.095237277 37 69
4.480804 0.44857308 -0.16223872 54 37
4.3899465 0.5688352 -0.41425198 32 16
4.4250126 0.57259804 -0.35531142 29 20
4.4344521 0.57382065 -0.293814 35 24
4.4531484 0.57466191 -0.23264164 31 28
4.4758611 0.57680136 -0.17119667 47 36
4.4878139 0.57754695 -0.10891768 56 44
4.4547453 0.71988267 -0.17900977 55 35
4.5117784 0.17679532 -0.085223407 31 47
4.4476166 0.30560064 -0.33947772 44 21
4.4569464 0.30545685 -0.27801713 39 25
4.4232554 0.042349257 -0.44489309 41 14
4.4753356 0.30671048 -0.21684973 30 30
4.4390759 0.041712493 -0.38369197 38 18
4.4879484 0.30678341 -0.15504804 53 38
4.4489403 0.041020311 -0.32330936 36 22
4.5035133 0.44052577 -0.1010833 34 45
4.458015 0.041096345 -0.26195601 47 26
4.3967023 0.29903701 -0.54827946 54 9
4.5194883 0.44129011 -0.038527433 52 53
4.4712386 0.040426686 -0.20063816 33 32
4.4168057 0.30039695 -0.46072742 38 13
4.5345926 0.44196421 0.024455434 42 61
4.432785 0.30070072 -0.40028059 40 17
4.3911176 0.42722377 -0.5877313 50 8
4.4829426 0.169414 -0.20908317 36 31
4.4904203 0.16969213 -0.14709473 55 39
4.5099969 0.30274752 -0.093144774 29 46
4.4114504 0.16598399 -0.52598327 37 10
4.5258245 0.30380434 -0.030630924 44 54
4.5357914 0.30446979 0.032272603 36 62
4.4746437 0.43218684 -0.22511978 34 29
4.4823418 0.43292943 -0.16223872 52 37
4.3757825 0.55224997 -0.47443432 12 12
4.4017825 0.55475402 -0.41519135 51 16
4.42204 0.55652553 -0.35491127 34 20
4.4364281 0.55833805 -0.293814 39 24
4.4551277 0.55911398 -0.23264164 39 28
4.4728889 0.5605523 -0.17100561 48 36
4.4898028 0.56187803 -0.10891768 51 44
4.457231 0.7043283 -0.17900977 85 35
4.5073719 0.16086985 -0.085128285 35 47
4.4486561 0.29007372 -0.33947772 36 21
4.4579859 0.28989735 -0.27801713 45 25
4.4233761 0.026908955 -0.44489309 54 14
4.4713955 0.29076451 -0.21660635 31 30
4.4391947 0.026216973 -0.38369197 51 18
4.4889917 0.29111564 -0.15504804 53 38
4.4440703 0.025465993 -0.32294407 49 22
4.505024 0.42480287 -0.1010833 46 45
4.4581313 0.025534712 -0.26195601 52 26
4.3927684 0.28337026 -0.54765719 55 9
4.5210009 0.42551148 -0.038527433 47 53
4.4513731 0.024724752 -0.19973437 33 32
4.4178271 0.28497759 -0.46072742 50 13
4.5361075 0.42613283 0.024455434 40 61
4.4338074 0.28522557 -0.40028059 45 17
4.3827143 0.4109692 -0.58640009 45 8
4.4835062 0.15376458 -0.20908317 40 31
4.4909849 0.15401658 -0.14709473 54 39
4.5110264 0.28700283 -0.093144774 36 46
4.412003 0.15058413 -0.52598327 55 10
4.5268579 0.2880044 -0.030630924 46 54
4.5368266 0.28863508 0.032272603 43 62
4.4761252 0.41656479 -0.22511978 43 29
4.4838257 0.4172805 -0.16223872 43 37
4.3678155 0.53576058 -0.47335604 43 12
4.4036918 0.53938562 -0.41519135 49 16
4.4190083 0.54048061 -0.35451114 42 20
4.4333987 0.54224241 -0.29348353 43 24
4.4570518 0.54355931 -0.23264164 44 28
4.4748187 0.54493558 -0.17100561 49 36
4.4966989 0.54680634 -0.10903897 50 44
4.50771 0.54814661 -0.045603562 50 52
4.4547248 0.68800098 -0.17880999 35 35
4.5129023 0.1452931 -0.085223407 37 47
4.444665 0.27423802 -0.339095 44 21
4.4589705 0.27433431 -0.27801713 42 25
4.4234433 0.011468328 -0.44489309 52 14
4.4723835 0.27515468 -0.21660635 41 30
4.4342771 0.010713308 -0.38325793 49 18
4.4899802 0.27544439 -0.15504804 47 38
4.4441323 0.0099531393 -0.32294407 47 22
4.5064793 0.40907481 -0.1010833 43 45
4.4482117 0.0099588353 -0.2613647 56 26
4.408587 0.26893577 -0.54952419 47 9
4.5274382 0.41017818 -0.038570188 43 53
4.4237585 0.26985574 -0.4612492 45 13
4.5375676 0.41029626 0.024455434 38 61
4.4347763 0.26974693 -0.40028059 44 17
4.3989286 0.39700264 -0.58839691 41 8
4.4790239 0.13796251 -0.20884851 42 31
4.4914951 0.13833921 -0.14709473 49 39
4.512001 0.27125466 -0.093144774 36 46
4.4125018 0.13518247 -0.52598327 44 10
4.5278354 0.27220097 -0.030630924 45 54
4.5328159 0.27249861 0.032236829 42 62
4.4725785 0.40049291 -0.2248677 41 29
4.4802775 0.4011814 -0.16205724 44 37
4.3894024 0.52286506 -0.47551256 25 12
4.4055481 0.52401054 -0.41519135 46 16
4.4208679 0.52505207 -0.35451114 46 20
4.4352641 0.52676368 -0.29348353 41 24
4.4589219 0.52799797 -0.23264164 40 28
4.4766936 0.52931219 -0.17100561 49 36
4.4985805 0.53110653 -0.10903897 47 44
4.5095959 0.53240836 -0.045603562 40 52
4.4620399 0.67319405 -0.17900977 39 35
4.4455953 0.25872153 -0.339095 33 21
4.4599009 0.25876793 -0.27801713 49 25
4.4184818 -0.0039643738 -0.44438866 51 14
4.4733162 0.25954148 -0.21660635 20 30
4.434288 -0.0047658915 -0.38325793 45 18
4.4909148 0.25976974 -0.15504804 42 38
4.4391532 -0.0055500125 -0.32257873 43 22
4.5078797 0.39334178 -0.1010833 30 45
4.4482193 -0.0055690003 -0.2613647 58 26
4.4094987 0.25354528 -0.54952419 35 9
4.5188804 0.39350569 -0.03848467 39 53
4.4246736 0.25441229 -0.4612492 39 13
4.5389724 0.39445466 0.024455434 35 61
4.4356909 0.25426504 -0.40028059 36 17
4.4002876 0.38164511 -0.58839691 29 8
4.4794784 0.12232696 -0.20884851 28 31
4.491951 0.12266011 -0.14709473 45 39
4.5129199 0.25550321 -0.093144774 35 46
4.4129467 0.11977913 -0.52598327 41 10
4.528758 0.25639424 -0.030630924 49 54
4.5387311 0.2569553 0.032272603 40 62
4.4739494 0.38487825 -0.2248677 20 29
4.4816508 0.38553986 -0.16205724 41 37
4.3813257 0.50639743 -0.47443432 23 12
4.4117069 0.77438933 -0.24763083 96 27
4.4073505 0.50862908 -0.41519135 39 16
4.4226737 0.50961715 -0.35451114 42 20
4.4420314 0.51185012 -0.293814 37 24
4.4656978 0.51300055 -0.23290242 20 28
4.4735503 0.51311249 -0.17081453 45 36
4.5004067 0.51540035 -0.10903897 28 44
4.5114269 0.51666373 -0.045603562 41 52
4.4594197 0.65688461 -0.17880999 37 35
4.4812365 0.6601063 -0.11688174 36 43
4.4365153 0.24266103 -0.33832955 42 21
4.4607773 0.24319839 -0.27801713 36 25
4.4184413 -0.019387729 -0.44438866 48 14
4.4741955 0.24392509 -0.21660635 20 30
4.4342442 -0.020244416 -0.38325793 42 18
4.4868045 0.2438226 -0.15487443 39 38
4.4440932 -0.021073364 -0.32294407 39 22
4.5042439 0.3771874 -0.10097075 29 45
4.443181 -0.021068271 -0.26106903 54 26
4.410357 0.23815171 -0.54952419 33 9
4.520227 0.37772945 -0.03848467 37 53
4.4205694 0.23869942 -0.46072742 25 13
4.5303559 0.37777847 0.024401328 24 61
4.4315796 0.23851424 -0.39982834 35 17
4.4015932 0.36628294 -0.58839691 17 8
4.4798779 0.1066899 -0.20884851 25 31
4.4923515 0.10697952 -0.14709473 43 39
4.5038004 0.23922189 -0.09293709 20 46
4.4083748 0.10425999 -0.52538687 37 10
4.5246325 0.24032092 -0.030596888 41 54
4.4702883 0.36884883 -0.2246156 20 29
4.4829693 0.36989361 -0.16205724 40 37
4.3781266 0.49054652 -0.47389519 34 12
4.4193029 0.75983387 -0.24790908 98 27
4.4041519 0.49268743 -0.41472167 34 16
4.4244256 0.49417606 -0.35451114 25 20
4.4388337 0.49578708 -0.29348353 30 24
4.4674616 0.49740925 -0.23290242 17 28
4.4802794 0.49804634 -0.17100561 37 36
4.49721 0.49913588 -0.10891768 17 44
4.5132027 0.50091273 -0.045603562 34 52
4.5317664 0.51659167 0.016584955 25 60
4.4616857 0.64131433 -0.17880999 34 35
4.4835138 0.64445984 -0.11688174 88 43
4.4472928 0.2276794 -0.339095 23 21
4.4615989 0.22762589 -0.27801713 27 25
4.4183464 -0.034810852 -0.44438866 39 14
4.4700313 0.22805306 -0.21636297 23 30
4.4341464 -0.035722692 -0.38325793 31 18
4.4876285 0.22815923 -0.15487443 34 38
4.4390063 -0.036540762 -0.32257873 23 22
4.5005507 0.36106318 -0.10085817 26 45
4.4380894 -0.036532439 -0.26077336 50 26
4.4062061 0.22250682 -0.5489018 32 9
4.5215178 0.36194861 -0.03848467 31 53
4.4213753 0.2232673 -0.46072742 39 13
4.5366311 0.36235982 0.024428381 20 61
4.4373579 0.22329214 -0.40028059 28 17
4.3929648 0.35012999 -0.5870657 20 8
4.4802227 0.091051564 -0.20884851 28 31
4.4877009 0.09119907 -0.14692983 42 39
4.5046082 0.22349922 -0.09293709 23 46
4.4087119 0.088871256 -0.52538687 27 10
4.5304375 0.22477154 -0.030630924 43 54
4.4765272 0.35363504 -0.2248677 29 29
4.4792528 0.35385001 -0.16187577 31 37
4.3896956 0.47633472 -0.47497341 28 12
4.4120827 0.7427395 -0.24735259 97 27
4.4058447 0.47731107 -0.41472167 26 16
4.4261236 0.47872892 -0.35451114 25 20
4.440537 0.48028964 -0.29348353 29 24
4.4642067 0.48127612 -0.23264164 31 28
4.4819908 0.48240423 -0.17100561 29 36
4.5038953 0.48396924 -0.10903897 17 44
4.5149236 0.48515564 -0.045603562 23 52
4.5335422 0.50076973 0.016584955 49 60
4.4589491 0.62504089 -0.17861019 28 35
4.4857359 0.62880552 -0.11688174 33 43
4.4480605 0.21215408 -0.339095 25 21
4.4623661 0.21205062 -0.27801713 41 25
4.423172 -0.050294314 -0.44489309 28 14
4.4757891 0.21268363 -0.21660635 23 30
4.4339948 -0.051200535 -0.38325793 29 18
4.4834061 0.21225859 -0.1547008 42 38
4.4338651 -0.051972892 -0.32221341 23 22
4.5017834 0.34535116 -0.10085817 28 45
4.4119124 0.20735607 -0.54952419 39 9
4.5227537 0.34616339 -0.03848467 29 53
4.4270954 0.20806412 -0.4612492 25 13
4.5328827 0.34614167 0.024401328 20 61
4.4381104 0.20780151 -0.40028059 30 17
4.3892188 0.33441767 -0.58640009 28 8
4.4755187 0.075331047 -0.20861384 29 31
4.5053611 0.20777385 -0.09293709 28 46
4.4089952 0.073481433 -0.52538687 31 10
4.5261998 0.20872742 -0.030596888 36 54
4.4727545 0.33763158 -0.2246156 20 29
4.4804602 0.33821231 -0.16187577 37 37
4.3860836 0.7233966 -0.30755469 97 23
4.3962746 0.46152848 -0.47551256 28 12
4.4294252 0.72977757 -0.24818732 37 27
4.4124351 0.46244842 -0.41519135 28 16
4.4277678 0.46327594 -0.35451114 23 20
4.4421868 0.46478635 -0.29348353 27 24
4.4658599 0.46569023 -0.23264164 23 28
4.4786782 0.46623829 -0.17081453 38 36
4.5055571 0.46824476 -0.10903897 25 44
4.5165896 0.46939266 -0.045603562 29 52
4.5352626 0.48494166 0.016584955 39 60
4.466054 0.61015052 -0.17880999 36 35
4.4879036 0.61314356 -0.11688174 45 43
4.4537554 0.1968445 -0.33947772 28 21
4.4680643 0.19669043 -0.27833018 31 25
4.4179959 -0.065655626 -0.44438866 34 14
4.4765043 0.19705892 -0.21660635 25 30
4.4337893 -0.066677757 -0.38325793 31 18
4.4891119 0.19682437 -0.15487443 54 38
4.4286704 -0.06736958 -0.32184806 30 22
4.5029616 0.32963488 -0.10085817 35 45
4.4175653 0.19216815 -0.55014652 52 9
4.5239339 0.33037388 -0.03848467 36 53
4.4277945 0.1926094 -0.4612492 30 13
4.5340629 0.33031684 0.024401328 25 61
4.4388084 0.19230835 -0.40028059 38 17
4.3903599 0.31909442 -0.58640009 32 8
4.4707613 0.059644483 -0.20837919 30 31
4.5060587 0.19204593 -0.09293709 25 46
4.4141889 0.058153104 -0.52598327 30 10
4.4788871 0.32237461 -0.2248677 23 29
4.4816136 0.32257056 -0.16187577 51 37
4.4033527 0.71047419 -0.30859843 97 23
4.3978586 0.44617981 -0.47551256 29 12
4.4171605 0.71191955 -0.24735259 52 27
4.4140224 0.4470433 -0.41519135 34 16
4.4449263 0.71561557 -0.18640532 82 34
4.429358 0.44781733 -0.35451114 25 20
4.4437823 0.4492774 -0.29348353 31 24
4.4724255 0.45059967 -0.23290242 28 28
4.4802785 0.45060194 -0.17081453 48 36
4.5021906 0.45201465 -0.10891768 30 44
4.5182009 0.45362398 -0.045603562 38 52
4.5319548 0.46859282 0.016566629 45 60
4.4731092 0.59521818 -0.17900977 36 35
4.4949713 0.59813523 -0.11701176 50 43
4.4544148 0.18129678 -0.33947772 30 21
4.4687238 0.18109275 -0.27833018 36 25
4.4177399 -0.081076913 -0.44438866 37 14
4.4771652 0.18143179 -0.21660635 29 30
4.4335294 -0.082154155 -0.38325793 36 18
4.4897718 0.18115325 -0.15487443 55 38
4.4333944 -0.082925588 -0.32221341 32 22
4.5090714 0.31426159 -0.10097075 30 45
4.4132524 0.1765503 -0.54952419 55 9
4.520072 0.31423423 -0.038441908 51 53
4.4284401 0.17715234 -0.4612492 33 13
4.5351887 0.31448799 0.024401328 36 61
4.4394526 0.17681286 -0.40028059 36 17
4.3914466 0.30376726 -0.58640009 44 8
4.4859247 0.044176854 -0.20908317 33 31
4.5116963 0.17650932 -0.093040928 30 46
4.4193287 0.042789411 -0.52657962 34 10
4.4799852 0.30673844 -0.2248677 29 29
4.4876971 0.30726552 -0.16205724 55 37
4.3959532 0.69353873 -0.30790257 98 23
4.3993897 0.43082571 -0.47551256 46 12
4.4245501 0.69727653 -0.24763083 46 27
4.415556 0.43163279 -0.41519135 39 16
4.442462 0.69931573 -0.1861968 100 34
4.4308944 0.43235329 -0.35451114 30 20
4.445323 0.433763 -0.29348353 37 24
4.4690018 0.43450156 -0.23264164 33 28
4.4818239 0.43496013 -0.17081453 47 36
4.5037408 0.43629634 -0.10891768 36 44
4.5197563 0.43784976 -0.045603562 47 52
4.5385375 0.45326802 0.016584955 46 60
4.5527916 0.45469326 0.08002618 25 68
4.4751596 0.57960045 -0.17900977 44 35
4.4871182 0.58115363 -0.11675173 50 43
4.4550204 0.16574687 -0.33947772 46 21
4.4693289 0.16549289 -0.27833018 42 25
4.4174304 -0.0964972 -0.44438866 51 14
4.4777713 0.16580246 -0.21660635 32 30
4.428236 -0.097515687 -0.38282388 43 18
4.4903765 0.16547993 -0.15487443 51 38
4.4231076 -0.09817078 -0.32148278 34 22
4.5101409 0.29852006 -0.10097075 37 45
4.4138417 0.16114411 -0.54952419 56 9
4.5261307 0.29878309 -0.03848467 55 53
4.4240618 0.16151351 -0.46072742 45 13
4.5362592 0.2986553 0.024401328 37 61
4.440043 0.16131517 -0.40028059 43 17
4.3974252 0.28876048 -0.5870657 49 8
4.466074 0.028402716 -0.20814453 33 31
4.5022936 0.16040708 -0.092833243 35 46
4.409523 0.027307361 -0.52538687 40 10
4.4810286 0.29109851 -0.2248677 37 29
4.4887424 0.29159871 -0.16205724 49 37
4.5210509 0.56150651 -0.054432649 58 51
4.3983469 0.67818981 -0.30790257 98 23
4.4008665 0.41546634 -0.47551256 36 12
4.4269567 0.68182772 -0.24763083 47 27
4.4170356 0.416217 -0.41519135 49 16
4.4498134 0.68456692 -0.18640532 45 34
4.4323764 0.41688395 -0.35451114 47 20
4.4468102 0.41824326 -0.29348353 41 24
4.4704909 0.41889921 -0.23264164 41 28
4.4833145 0.41931295 -0.17081453 49 36
4.5052361 0.42057267 -0.10891768 42 44
4.3648324 0.66832232 -0.36700034 47 19
4.5212574 0.42207018 -0.045603562 49 52
4.5351148 0.43694267 0.016566629 46 60
4.5493746 0.43831822 0.079938039 47 68
4.4771557 0.56397575 -0.17900977 50 35
4.4940782 0.56611359 -0.11688174 55 43
4.4456062 0.14986259 -0.33871228 40 21
4.4599042 0.14956012 -0.27770403 45 25
4.4170666 -0.11191633 -0.44438866 58 14
4.473331 0.15000553 -0.21636297 45 30
4.4278688 -0.11297252 -0.38282388 56 18
4.4909272 0.14980458 -0.15487443 50 38
4.5111556 0.2827749 -0.10097075 45 45
4.4143772 0.14573593 -0.54952419 57 9
4.5271459 0.28298211 -0.03848467 68 53
4.4245987 0.14606965 -0.46072742 49 13
4.5322838 0.28250855 0.024374278 40 61
4.4405789 0.14581555 -0.40028059 46 17
4.3934603 0.27310205 -0.58640009 49 8
4.4811296 0.012847035 -0.20884851 41 31
4.5128188 0.14500768 -0.093040928 42 46
4.414556 0.011925485 -0.52598327 52 10
4.4770327 0.27514926 -0.2246156 36 29
4.484746 0.27562237 -0.16187577 43 37
4.5130568 0.54452038 -0.054312218 40 51
4.4253469 0.6665619 -0.30964214 43 23
4.4022903 0.40010187 -0.47551256 40 12
4.4293103 0.66637063 -0.24763083 43 27
4.4184618 0.40079609 -0.41519135 48 16
4.4472361 0.66828465 -0.1861968 42 34
4.4288411 0.40095955 -0.35411102 41 20
4.4482431 0.40271845 -0.29348353 42 24
4.4669533 0.40284261 -0.23238082 42 28
4.4797754 0.40321225 -0.17062347 51 36
4.5066772 0.40484393 -0.10891768 46 44
4.372067 0.65382212 -0.36741787 69 19
4.5276828 0.40673339 -0.04565417 44 52
4.5366125 0.4211095 0.016566629 45 60
4.5508766 0.42243525 0.079938039 46 68
4.4741378 0.54773527 -0.17880999 43 35
4.496027 0.55042291 -0.11688174 53 43
4.4461026 0.13434362 -0.33871228 42 21
4.4603996 0.13399124 -0.27770403 40 25
4.4166489 -0.12733409 -0.44438866 57 14
4.4738274 0.13438977 -0.21636297 40 30
4.4224682 -0.12827933 -0.38238981 61 18
4.4864278 0.13398004 -0.1547008 50 38
4.5071254 0.26673159 -0.10085817 40 45
4.4049411 0.13003683 -0.54827946 57 9
4.5281062 0.2671777 -0.03848467 40 53
4.4250817 0.13062404 -0.46072742 43 13
4.5332422 0.2666862 0.024374278 47 61
4.4360838 0.13016991 -0.39982834 40 17
4.4042807 0.25834349 -0.5877313 45 8
4.4145703 -0.0034848773 -0.52598327 43 10
4.4779654 0.25951985 -0.2246156 40 29
4.4856801 0.25996602 -0.16187577 44 37
4.5198951 0.52934688 -0.054372434 41 51
4.417778 0.64965326 -0.30894634 33 23
4.4086118 0.38516587 -0.47605169 43 12
4.4316087 0.65090537 -0.24763083 36 27
4.4198337 0.38537037 -0.41519135 43 16
4.4495416 0.65275687 -0.1861968 42 34
4.4302135 0.38549757 -0.35411102 45 20
4.4813514 0.65744281 -0.12472416 41 42
4.4446516 0.38675565 -0.29315302 40 24
4.4733067 0.38767928 -0.23264164 34 28
4.4811554 0.38757244 -0.17062347 47 36
4.5080628 0.38911021 -0.10891768 37 44
4.379252 0.63927937 -0.36783534 35 19
4.5191126 0.39006525 -0.045552947 44 52
