# .PCD v0.7 - Point Cloud Data file format
VERSION 0.7
FIELDS x y z intensity ring
SIZE 4 4 4 4 2
TYPE F F F F U
COUNT 1 1 1 1 1
WIDTH 1229
HEIGHT 1
VIEWPOINT 0 0 0 1 0 0 0
POINTS 1229
DATA ascii
4.7214637 0.65006328 -0.032196503 40 54
4.6404467 0.7779215 -0.23570773 28 29
4.648201 0.77922046 -0.16986066 41 37
4.7436943 0.50211394 -0.090074286 30 47
4.659657 0.6324622 -0.35823128 34 21
4.7444863 0.50219727 -0.023966549 39 55
4.6741638 0.63359541 -0.29367125 31 25
4.7331557 0.35964632 -0.47767997 28 14
4.7494197 0.50187856 0.042191029 30 63
4.682724 0.63475275 -0.22853185 25 30
4.7345157 0.35891756 -0.41060248 32 18
4.6954474 0.63563859 -0.1633821 42 38
4.7397776 0.3584803 -0.34559399 25 22
4.7491078 0.3591786 -0.27999136 29 26
4.7675529 0.3597222 -0.21464667 23 32
4.6434531 0.62696743 -0.4878597 37 13
4.770143 0.35907841 -0.14837314 39 40
4.6547999 0.62766832 -0.42334762 30 17
4.7817183 0.35994062 -0.082243465 31 48
4.7824631 0.35915676 -0.015785396 28 56
4.7251506 0.4934915 -0.22152022 29 31
4.7277694 0.49376354 -0.15566975 38 39
4.7079368 0.63146895 -0.097921416 20 46
4.6870217 0.4887042 -0.56176448 21 10
4.7237039 0.63357836 -0.032196503 28 54
4.7187366 0.63291383 0.0338111 41 62
4.6431341 0.76171857 -0.23570773 20 29
4.6607547 0.76460725 -0.17022362 25 37
4.750391 0.48605832 -0.0901694 31 47
4.666779 0.61684465 -0.35861403 28 21
4.7511845 0.48613903 -0.023991857 38 55
4.681294 0.61792696 -0.29398429 42 25
4.7343822 0.34312236 -0.47767997 29 14
4.7610912 0.4863075 0.042280041 33 63
4.6898623 0.61905497 -0.22877525 25 30
4.7407084 0.34274414 -0.41103649 32 18
4.7025924 0.61989594 -0.16355573 35 38
4.7459731 0.34228802 -0.34595928 29 22
4.6643543 0.75433367 -0.1055859 51 45
4.755311 0.34295407 -0.28028703 36 26
4.7687798 0.34307814 -0.21464667 29 32
4.6505442 0.6114015 -0.48838148 23 13
4.7713675 0.34242529 -0.14837314 39 40
4.6618996 0.61206269 -0.42379993 29 17
4.7829452 0.34324712 -0.082243465 38 48
4.7836876 0.34246063 -0.015785396 37 56
4.7318134 0.47749332 -0.22175488 29 31
4.734436 0.47775647 -0.15583466 43 39
4.7150698 0.61567694 -0.098025262 25 46
4.6936378 0.47283521 -0.56236076 39 10
4.7308445 0.61773133 -0.032230537 34 54
4.7258754 0.61708421 0.033846881 38 62
4.6506948 0.74629694 -0.23595983 30 29
4.6633954 0.74833351 -0.17022362 33 37
4.752059 0.46947345 -0.0901694 38 47
4.6738491 0.60118514 -0.35899675 32 21
4.7578282 0.47004011 -0.024017164 46 55
4.6883726 0.60221654 -0.2942974 31 25
4.7405148 0.32693252 -0.4781844 30 14
4.7577839 0.46919733 0.042235535 42 63
4.6969481 0.60331517 -0.22901863 28 30
4.7468457 0.32653177 -0.41147056 36 18
4.7047281 0.60347712 -0.16355573 39 38
4.7521148 0.32605681 -0.34632462 37 22
4.6867094 0.7411685 -0.10603616 55 45
4.7564793 0.3263528 -0.28028703 46 26
4.7749314 0.32676706 -0.21487263 31 32
4.6526499 0.5951643 -0.48838148 28 13
4.7775202 0.32610449 -0.14852934 45 40
4.6640077 0.59578598 -0.42379993 31 17
4.7891026 0.326886 -0.082329854 31 48
4.7334514 0.46097329 -0.22175488 30 31
4.7460232 0.46219045 -0.15616447 60 39
4.7221498 0.59984285 -0.098129109 29 46
4.700201 0.45692599 -0.56295717 29 10
4.7329721 0.60121387 -0.032230537 43 54
4.7280011 0.60058409 0.033846881 43 62
4.6582055 0.73083192 -0.23621193 28 29
4.6659794 0.73205066 -0.17022362 46 37
4.595746 0.85620522 -0.24229157 50 28
4.7586455 0.45335412 -0.090264522 74 47
4.6808658 0.58548379 -0.35937944 39 21
4.7644176 0.45390075 -0.024042474 58 55
4.6904459 0.58584744 -0.2942974 38 25
4.7465906 0.31070405 -0.47868884 42 14
4.76437 0.4530572 0.042280041 48 63
4.6990256 0.58691609 -0.22901863 30 30
4.7479563 0.30996022 -0.41147056 56 18
4.7117643 0.58766758 -0.16372934 52 38
4.7532239 0.30946687 -0.34632462 48 22
4.6744475 0.72251523 -0.10569846 47 45
4.7625709 0.31006801 -0.2805827 48 26
4.7760429 0.31009743 -0.21487263 33 32
4.6596341 0.57953197 -0.48890328 29 13
4.7786288 0.3094258 -0.14852934 46 40
4.671001 0.58011395 -0.42425224 37 17
4.7902141 0.3101669 -0.082329854 36 48
4.740005 0.44491163 -0.22198954 35 31
4.7476077 0.44562092 -0.15616447 58 39
4.729176 0.58396673 -0.098232947 34 46
4.7067103 0.44097674 -0.56355351 36 10
4.7350421 0.58468908 -0.032230537 43 54
4.7350302 0.58468759 0.033882655 45 62
4.6656642 0.71532357 -0.23646402 31 29
4.7590127 0.58679754 0.10051651 20 69
4.6734447 0.71651554 -0.17040509 59 37
4.5897331 0.84017307 -0.30670348 49 24
4.6085296 0.84195364 -0.24281317 42 28
4.7601995 0.43674055 -0.090264522 40 47
4.6828809 0.56914091 -0.35937944 48 21
4.7709527 0.43772107 -0.024067782 53 55
4.6924624 0.56947112 -0.2942974 44 25
4.7526121 0.2944372 -0.47919327 53 14
4.7659225 0.43642369 0.042280041 51 63
4.7010455 0.57050979 -0.22901863 36 30
4.7539816 0.29368812 -0.4119046 56 18
4.7137866 0.57121682 -0.16372934 58 38
4.759253 0.29317582 -0.34668994 53 22
4.6868262 0.70768547 -0.10592359 70 45
4.7636242 0.29344162 -0.2805827 49 26
4.6951838 0.5673061 -0.58873147 43 9
4.6978464 0.70850962 -0.04032338 30 53
4.7770963 0.29342404 -0.21487263 38 32
4.6715026 0.56445289 -0.48994681 29 13
4.7846684 0.29304498 -0.1486855 56 40
4.6779408 0.56440026 -0.42470449 40 17
4.796258 0.29374573 -0.082416251 48 48
4.7465029 0.42880973 -0.22222419 43 31
4.7491341 0.42904595 -0.15616447 56 39
4.7311854 0.56745523 -0.098232947 44 46
4.7082214 0.4245446 -0.56355351 41 10
4.7370543 0.56815708 -0.032230537 46 54
4.7370424 0.56815565 0.033882655 43 62
4.6681328 0.69903302 -0.23646402 38 29
4.7461414 0.56840366 0.10019976 43 69
4.6759176 0.70019782 -0.17040509 49 37
4.592638 0.82414687 -0.30670348 58 24
4.6114402 0.82586181 -0.24281317 53 28
4.766675 0.4205583 -0.090359636 45 47
4.6897902 0.55337363 -0.35976219 51 21
4.7724514 0.4210647 -0.024067782 54 55
4.6993775 0.55367011 -0.29461047 54 25
4.7536106 0.27784571 -0.47919327 54 14
4.772398 0.42022064 0.042324547 47 63
4.7079687 0.55467933 -0.22926201 49 30
4.7599506 0.27737769 -0.41233864 54 18
4.7207146 0.5553413 -0.16390297 54 38
4.7652254 0.27684647 -0.34705526 49 22
4.6942134 0.69204962 -0.10603616 70 45
4.7696023 0.27709728 -0.28087837 53 26
4.6724977 0.5480321 -0.58561975 57 9
4.7052379 0.69283456 -0.040366143 54 53
4.7830782 0.27703199 -0.21509854 40 32
4.6734443 0.54814285 -0.48994681 44 13
4.7906518 0.27662581 -0.14884168 50 40
4.6798825 0.54806781 -0.42470449 46 17
4.7972541 0.27700189 -0.082416251 40 48
4.7479706 0.41223875 -0.22222419 43 31
4.7555814 0.41289523 -0.15632938 50 39
4.7381029 0.55151314 -0.098336779 42 46
4.7096744 0.40810725 -0.56355351 51 10
4.7390084 0.55161822 -0.032230537 45 54
4.7439632 0.55219328 0.033918437 42 62
4.6754851 0.68345553 -0.23671611 42 29
4.7629929 0.5535593 0.10051651 43 69
4.6783328 0.68387151 -0.17040509 46 37
4.6053143 0.80983984 -0.30736449 45 24
4.6241312 0.81148702 -0.2433348 48 28
4.6370144 0.81291521 -0.17864831 34 36
4.7681136 0.40391695 -0.090359636 34 47
4.6916933 0.53699988 -0.35976219 51 21
4.7689095 0.40398395 -0.024042474 43 55
4.7012815 0.53726286 -0.29461047 44 25
4.7595186 0.26151979 -0.47969767 37 14
4.7098761 0.5382421 -0.22926201 42 30
4.7608895 0.26076066 -0.41233864 45 18
4.71766 0.53829473 -0.16372934 49 38
4.7661629 0.26021102 -0.34705526 28 22
4.6966009 0.6756596 -0.10603616 39 45
4.7755246 0.26071474 -0.28117403 37 26
4.6448054 0.52836454 -0.5818857 54 9
4.7076278 0.67640603 -0.040366143 53 53
4.7840157 0.26033422 -0.21509854 28 32
4.6753292 0.53182614 -0.48994681 43 13
4.7865977 0.25963485 -0.1486855 47 40
4.6867151 0.53228891 -0.4251568 48 17
4.7493811 0.39566272 -0.22222419 42 31
4.7569938 0.39629263 -0.15632938 43 39
4.7399993 0.5349707 -0.098336779 44 46
4.7110705 0.39166492 -0.56355351 49 10
4.7458739 0.53563172 -0.032264572 41 54
4.745862 0.5356304 0.033918437 36 62
4.6778426 0.66713089 -0.23671611 43 29
4.7450256 0.53469765 0.10009417 41 69
4.6856389 0.66824186 -0.17058657 47 37
4.6031961 0.79291183 -0.30703399 53 24
4.6269355 0.79534084 -0.2433348 49 28
4.6447477 0.79757017 -0.17883937 36 36
4.7694945 0.38727066 -0.090359636 28 47
4.698494 0.52116746 -0.36014491 31 21
4.7752748 0.38773674 -0.024067782 43 55
4.7080884 0.52139664 -0.29492357 34 25
4.7604022 0.2449044 -0.47969767 25 14
4.7166896 0.52234614 -0.22950538 25 30
4.7667456 0.24439161 -0.41277272 33 18
4.7244768 0.52237123 -0.16390297 48 38
4.7670426 0.24357243 -0.34705526 25 22
4.6989307 0.65926129 -0.10603616 34 45
4.7764058 0.24404347 -0.28117403 30 26
4.6959357 0.51756614 -0.58810908 54 9
4.7149115 0.66066241 -0.040408902 42 53
4.7848954 0.24363331 -0.21509854 30 32
4.6821003 0.51604611 -0.49046859 38 13
4.7874746 0.24292493 -0.1486855 42 40
4.6934948 0.51646894 -0.42560911 40 17
4.755712 0.37947631 -0.22245885 28 31
4.7633305 0.38007993 -0.15649427 42 39
4.741838 0.51842177 -0.098336779 25 46
4.7173576 0.37560904 -0.56414986 44 10
4.7526851 0.51960397 -0.032298606 39 54
4.7477031 0.51906103 0.033918437 23 62
4.6850891 0.65148538 -0.2369682 31 29
4.7518334 0.51867193 0.10019976 29 69
4.6879425 0.65188187 -0.17058657 40 37
4.6061783 0.77687973 -0.37211668 12 20
4.6157746 0.77849942 -0.30769497 54 24
4.6395316 0.78084356 -0.2438564 40 28
4.6475034 0.7813521 -0.17883937 45 36
4.7758021 0.37100402 -0.090454757 29 47
4.7052426 0.50529414 -0.36052766 37 21
4.7815843 0.37144995 -0.024093088 32 55
4.7098804 0.50495923 -0.29492357 30 25
4.7661977 0.22852032 -0.48020205 28 14
4.7184844 0.50587869 -0.22950538 23 30
4.76757 0.22775108 -0.41277272 25 18
4.7262716 0.50587654 -0.16390297 40 38
4.7728448 0.22716404 -0.3474206 23 22
4.6962504 0.64217824 -0.10592359 23 45
4.7772284 0.22736923 -0.28117403 31 26
4.6730471 0.49854809 -0.58499742 25 9
4.7171888 0.64420033 -0.040408902 43 53
4.7857165 0.22692943 -0.21509854 29 32
4.688818 0.50022519 -0.49099037 20 13
4.7074957 0.64204067 0.025510479 42 61
4.7932858 0.22644399 -0.14884168 35 40
4.7002206 0.50060809 -0.42606142 28 17
4.7570076 0.36287349 -0.22245885 28 31
4.7646279 0.3634505 -0.15649427 33 39
4.7436185 0.50186652 -0.098336779 28 46
4.7186403 0.3591401 -0.56414986 33 10
4.7494979 0.50248653 -0.032264572 30 54
4.749486 0.50248528 0.033918437 25 62
4.6873345 0.63512737 -0.2369682 25 29
4.7486429 0.50155836 0.10009417 25 69
4.6901898 0.6355139 -0.17058657 41 37
4.6137781 0.7616086 -0.37251678 29 20
4.6233859 0.76319575 -0.30802548 35 24
4.6422286 0.76464379 -0.2438564 20 28
4.6551328 0.76593637 -0.17903045 40 36
4.7770681 0.35433111 -0.090454757 30 47
4.711936 0.48937997 -0.36091036 35 21
4.7778654 0.35438982 -0.024067782 33 55
4.7165775 0.48902845 -0.29523662 28 25
4.7669663 0.2118818 -0.48020205 28 14
4.7251897 0.48991841 -0.22974876 25 30
4.7733121 0.21132417 -0.41320673 29 18
4.7329793 0.48988855 -0.1640766 33 38
4.7785902 0.21071807 -0.34778589 29 22
4.7083731 0.62710005 -0.10614872 23 45
4.7829795 0.21090816 -0.28146967 34 26
4.684629 0.48324791 -0.58624208 23 9
4.7194085 0.62773031 -0.040408902 39 53
4.7914701 0.21043804 -0.21532451 29 32
4.6954818 0.48436368 -0.49151215 23 13
4.7245779 0.62757814 0.025591638 59 61
4.7940474 0.20971093 -0.14884168 30 40
4.7019396 0.48419824 -0.42606142 30 17
4.7582455 0.34626621 -0.22245885 30 31
4.7658677 0.34681663 -0.15649427 39 39
4.7503147 0.48581207 -0.098440625 28 46
4.7248168 0.34302342 -0.5647462 37 10
4.7561965 0.48641157 -0.032298606 34 54
4.7611594 0.48691744 0.033989996 29 62
4.6895227 0.61876166 -0.2369682 34 29
4.7603116 0.48599157 0.10030534 28 69
4.6973329 0.61979127 -0.17076804 40 37
4.6213288 0.74629402 -0.37291691 20 20
4.6260219 0.74705249 -0.30802548 27 24
4.6497993 0.74922961 -0.24411722 20 28
4.6627107 0.75047678 -0.17922153 45 36
4.6648617 0.7499879 -0.11376926 52 44
4.7832627 0.33800349 -0.090549864 36 47
4.7136154 0.4729293 -0.36091036 25 21
4.784061 0.33805943 -0.024093088 39 55
4.718256 0.47256157 -0.29523662 34 25
4.7676764 0.19524068 -0.48020205 28 14
4.7268705 0.47342145 -0.22974876 28 30
4.7740207 0.1946609 -0.41320673 34 18
4.7446046 0.47435519 -0.16442385 36 38
4.7792964 0.19403639 -0.34778589 28 22
4.7105331 0.61066091 -0.10614872 29 45
4.7836862 0.19421117 -0.28146967 47 26
4.7010975 0.46836296 -0.58810908 23 9
4.7265296 0.61189413 -0.040451664 34 53
4.7921753 0.19371141 -0.21532451 31 32
4.7020922 0.46846172 -0.4920339 25 13
4.7168217 0.60980141 0.025537532 47 61
4.7085557 0.46827352 -0.42651367 30 17
4.7644081 0.32999709 -0.22269352 36 31
4.7670493 0.33017856 -0.15649427 57 39
4.7519817 0.4692274 -0.098440625 32 46
4.730938 0.32686806 -0.56534255 30 10
4.7578654 0.4698064 -0.032298606 41 54
4.757854 0.46980527 0.033954214 33 62
4.7015605 0.60365915 -0.2374724 32 29
4.7520285 0.46839464 0.10009417 38 69
4.7044239 0.6040265 -0.17094952 39 37
4.6239057 0.73015809 -0.37291691 25 20
4.6286016 0.73090017 -0.30802548 30 24
4.6523867 0.73299432 -0.24411722 25 28
4.6702371 0.73497349 -0.17941257 30 36
4.6773267 0.73525339 -0.11401183 47 44
4.7844129 0.32130474 -0.090549864 36 47
4.7201996 0.45695153 -0.36129308 36 21
4.7248435 0.45656717 -0.29554972 43 25
4.7782717 0.17896178 -0.48121092 29 14
4.7334657 0.45739734 -0.22999214 30 30
4.7796488 0.17817694 -0.41364077 41 18
4.7462316 0.45779055 -0.16442385 52 38
4.7849288 0.17753334 -0.34815124 31 22
4.7175961 0.59483922 -0.10626128 33 45
4.7893233 0.17769296 -0.28176534 51 26
4.702704 0.45195019 -0.58810908 30 9
4.7286372 0.59539169 -0.040451664 52 53
4.7928228 0.17698243 -0.21532451 37 32
4.7135997 0.45299357 -0.49307746 28 13
4.7338037 0.59520239 0.025618689 46 61
4.7151184 0.45230857 -0.42696598 34 17
4.770515 0.31368911 -0.2229282 38 31
4.7731595 0.31386152 -0.15665919 66 39
4.7585669 0.4531092 -0.098544464 38 46
4.7370038 0.3106741 -0.56593889 32 10
4.7644544 0.45366779 -0.03233264 49 54
4.7644429 0.45366672 0.033989996 42 62
4.703639 0.58724397 -0.2374724 33 29
4.7065043 0.58760136 -0.17094952 56 37
4.6264267 0.7140131 -0.37291691 29 20
4.6360555 0.7155003 -0.30835599 32 24
4.6598516 0.7175104 -0.24437803 32 28
4.6727743 0.71866685 -0.17941257 37 36
4.6749234 0.71816248 -0.11389054 58 44
4.7855058 0.30460209 -0.090549864 50 47
4.721766 0.44047219 -0.36129308 32 21
4.726409 0.44007161 -0.29554972 44 25
4.7838392 0.16244635 -0.48171535 54 14
4.7400064 0.44133303 -0.23023552 37 30
4.7852206 0.16165607 -0.41407481 56 18
4.7478004 0.44122028 -0.16442385 54 38
4.7855186 0.16082975 -0.34815124 53 22
4.7246056 0.57897562 -0.10637385 52 45
4.7899141 0.16097403 -0.28176534 52 26
4.7091932 0.43598768 -0.58873147 36 9
4.7356491 0.57948875 -0.040494423 59 53
4.7984033 0.16041425 -0.21555045 77 32
4.7151518 0.4365373 -0.49307746 43 13
4.7358527 0.57867473 0.025618689 42 61
4.7216272 0.4363035 -0.42741829 42 17
4.7715807 0.29703498 -0.2229282 59 31
4.7792134 0.29750586 -0.1568241 57 39
4.7601194 0.43649596 -0.098544464 49 46
4.7430143 0.29444179 -0.56653529 44 10
4.770988 0.43748888 -0.032366678 53 54
4.7759552 0.43794268 0.034061551 43 62
4.7106175 0.5714224 -0.23772447 37 29
4.7134867 0.57177013 -0.17113099 56 37
4.6182508 0.69707865 -0.43726596 58 16
4.6387472 0.69934666 -0.37371719 33 20
4.6434584 0.70005745 -0.30868649 37 24
4.6672654 0.70198333 -0.24463885 37 28
4.6752543 0.70235139 -0.17941257 51 36
4.6872883 0.70332408 -0.11413312 60 44
4.7032518 0.70572132 -0.047779977 29 52
4.6205082 0.84638727 -0.18640192 41 35
4.7915301 0.28819302 -0.090644978 54 47
4.7282405 0.42443147 -0.36167583 50 21
4.7328868 0.4240143 -0.29586279 46 25
4.7843766 0.14574665 -0.48171535 42 14
4.741518 0.4247846 -0.23023552 47 30
4.7857556 0.14495154 -0.41407481 49 18
4.7493119 0.42464471 -0.16442385 51 38
4.7860513 0.14412418 -0.34815124 49 22
4.7315617 0.56307024 -0.10648642 57 45
4.7954359 0.14439945 -0.28206101 51 26
4.7057447 0.41910839 -0.58810908 46 9
4.7376432 0.56295472 -0.040494423 53 53
4.798934 0.14366373 -0.21555045 46 32
4.7166471 0.42007565 -0.49307746 37 13
4.7378435 0.56213999 0.025618689 42 61
4.7231212 0.41981924 -0.42741829 47 17
4.7725887 0.28037721 -0.2229282 46 31
4.7802234 0.28082144 -0.1568241 53 39
4.7665939 0.42031482 -0.09864831 46 46
4.7489691 0.27817127 -0.56713164 52 10
4.7724857 0.42083237 -0.032366678 48 54
4.7724743 0.42083132 0.034025777 43 62
4.7125831 0.55497581 -0.23772447 41 29
4.7154536 0.55531347 -0.17113099 44 37
4.6305056 0.68240637 -0.43820533 60 16
4.6411605 0.68315017 -0.37371719 40 20
4.6458735 0.68384451 -0.30868649 41 24
4.6696873 0.6856873 -0.24463885 45 28
4.6776776 0.68602747 -0.17941257 49 36
4.6897149 0.68695813 -0.11413312 58 44
4.7007399 0.68857437 -0.047729362 32 52
4.6234341 0.8302536 -0.18640192 48 35
4.7925067 0.27146572 -0.090644978 50 47
4.7346601 0.40835097 -0.36205855 49 21
4.7393098 0.40791711 -0.2961759 46 25
4.7798839 0.12891494 -0.48121092 41 14
4.7429719 0.40823105 -0.23023552 44 30
4.7862325 0.12824525 -0.41407481 45 18
4.7557445 0.40848988 -0.16459748 55 38
4.7865248 0.12741688 -0.34815124 36 22
4.7334981 0.54655057 -0.10648642 56 45
4.7959108 0.12765938 -0.28206101 50 26
4.7121224 0.40310094 -0.58873147 53 9
4.7395792 0.54641378 -0.040494423 43 53
4.7180843 0.40360895 -0.49307746 49 13
4.7447448 0.54616964 0.025645742 40 61
4.7245584 0.40332994 -0.42741829 48 17
4.7785254 0.26398882 -0.22316286 37 31
4.7861633 0.26440647 -0.15698899 43 39
4.7680326 0.40367371 -0.09864831 38 46
4.7499118 0.26159257 -0.56713164 56 10
4.7739263 0.40417069 -0.032366678 45 54
4.7838788 0.40500993 0.034097333 41 62
4.7144918 0.53852242 -0.23772447 49 29
4.7173634 0.53885007 -0.17113099 45 37
4.6328592 0.66623873 -0.43820533 59 16
4.6435165 0.66694534 -0.37371719 54 20
4.6531701 0.66833299 -0.30901697 43 24
4.6720524 0.66938281 -0.24463885 45 28
4.6849904 0.67040348 -0.17960365 47 36
4.6970325 0.67129153 -0.11425442 47 44
4.7130136 0.67357737 -0.047830593 41 52
4.6410642 0.81671232 -0.18700127 39 35
4.7360563 0.39182141 -0.36205855 41 21
4.7456784 0.39178023 -0.29648894 36 25
4.7852778 0.1123421 -0.48171535 23 14
4.7493448 0.39208168 -0.23047888 35 30
4.7866511 0.1115374 -0.41407481 35 18
4.7621222 0.39229536 -0.16477111 48 38
4.7919259 0.11081941 -0.34851655 25 22
4.7353773 0.53002423 -0.10648642 35 45
4.791337 0.11080626 -0.28176534 43 26
4.7184448 0.38705403 -0.58935374 49 9
4.7414579 0.52986622 -0.040494423 38 53
4.7244205 0.38754216 -0.49359927 38 13
4.7515917 0.53015792 0.025672795 28 61
4.7309008 0.38724023 -0.4278706 42 17
4.7794185 0.24730705 -0.22316286 30 31
4.7870579 0.24769807 -0.15698899 39 39
4.769412 0.38702771 -0.09864831 25 46
4.755753 0.24526359 -0.56772798 54 10
4.7753077 0.38750413 -0.032366678 38 54
4.7213068 0.52261138 -0.23797658 37 29
4.7192154 0.52238017 -0.17113099 37 37
4.6400862 0.65075493 -0.43867502 61 16
4.6507521 0.65142435 -0.37411729 43 20
4.6604156 0.65277898 -0.30934748 45 24
4.6842504 0.65445322 -0.24516046 42 28
4.6873016 0.65404576 -0.17960365 47 36
4.699347 0.65489173 -0.11425442 34 44
4.7103844 0.65643114 -0.047779977 43 52
4.7135739 0.67113918 0.01731799 11 60
4.6340404 0.79880619 -0.18660171 38 35
4.7324257 0.3748951 -0.36167583 33 21
4.7420421 0.3748208 -0.2961759 29 25
4.7906141 0.095733181 -0.48221973 25 14
4.7506843 0.37550095 -0.23047888 20 30
4.7919912 0.094922945 -0.41450888 30 18
4.7634621 0.37567008 -0.16477111 37 38
4.792284 0.094091788 -0.34851655 29 22
4.7371984 0.51349151 -0.10648642 30 45
4.7916951 0.094080687 -0.28176534 36 26
4.7148218 0.37019458 -0.58873147 38 9
4.7482495 0.51384962 -0.040537182 42 53
4.7257447 0.37104848 -0.49359927 34 13
4.7534132 0.51356852 0.025672795 32 61
4.732223 0.37072396 -0.4278706 34 17
4.7852402 0.23086013 -0.22339749 29 31
4.7928848 0.23122464 -0.15715389 34 39
4.7757187 0.37076226 -0.098752148 25 46
4.7516217 0.22842586 -0.56713164 42 10
4.7866011 0.37160343 -0.032434743 25 54
4.7231021 0.50612777 -0.23797658 28 29
4.7210102 0.50590384 -0.17113099 41 37
4.6258516 0.63312221 -0.50246906 38 12
4.6521935 0.63590342 -0.43961436 39 16
4.6628737 0.63653553 -0.37491754 35 20
4.6626658 0.63650715 -0.30934748 47 24
4.6865063 0.63809806 -0.24516046 29 28
4.6895561 0.63768005 -0.17960365 37 36
4.7016044 0.638484 -0.11425442 28 44
4.7126474 0.63998491 -0.047779977 28 52
4.7158875 0.65468174 0.01731799 46 60
4.6515784 0.78512508 -0.18720107 39 35
4.6586342 0.78631848 -0.12195226 90 43
4.7386765 0.35874823 -0.36205855 31 21
4.7482977 0.35863984 -0.29648894 30 25
4.7909188 0.079010233 -0.48221973 29 14
4.7569466 0.35929015 -0.23072226 25 30
4.7972736 0.078272574 -0.41494286 34 18
4.7647443 0.35904017 -0.16477111 34 38
4.7975693 0.077439614 -0.34888187 28 22
4.7389622 0.49695241 -0.10648642 30 45
4.7969847 0.077430636 -0.28206101 30 26
4.7210321 0.35410386 -0.58935374 17 9
4.7500138 0.49727201 -0.040537182 35 53
4.7319698 0.35492054 -0.49412099 23 13
4.755177 0.49697298 0.025672795 31 61
4.7384539 0.35457304 -0.42832285 32 17
4.7860169 0.21415512 -0.22339749 31 31
4.7936625 0.21449295 -0.15715389 35 39
4.7769833 0.35408965 -0.098752148 30 46
4.757349 0.21205644 -0.56772798 36 10
4.7828822 0.35452494 -0.032400709 29 54
4.7248402 0.48963794 -0.23797658 28 29
4.7277179 0.48993585 -0.17131247 31 37
4.637888 0.61828595 -0.50354731 20 12
4.573945 0.88552803 -0.25764737 96 27
4.6543846 0.61966032 -0.43961436 32 16
4.6601272 0.61959773 -0.37451741 25 20
4.6648593 0.62022752 -0.30934748 32 24
4.6887054 0.62173527 -0.24516046 23 28
4.6967063 0.62196302 -0.17979471 40 36
4.7087593 0.62272429 -0.1143757 20 44
4.7148523 0.62353075 -0.047779977 25 52
4.7230992 0.63888699 0.017336316 53 60
4.6592202 0.76969928 -0.18740086 40 35
4.6662817 0.77086836 -0.12208226 97 43
4.7448726 0.34256226 -0.36244124 31 21
4.754498 0.3424198 -0.29680204 31 25
4.7961397 0.062347092 -0.48272413 29 14
4.7581716 0.34268314 -0.23072226 28 30
4.7975183 0.061526481 -0.41494286 39 18
4.7709532 0.34276232 -0.16494474 35 38
4.8027964 0.060751677 -0.34924719 29 22
4.7456408 0.48091069 -0.10659898 32 45
4.7922349 0.060626328 -0.28176534 36 26
4.7271881 0.33797434 -0.58997607 25 9
4.7566957 0.48119104 -0.040579945 36 53
4.7381406 0.33875364 -0.49464279 23 13
4.7618575 0.48087305 0.025699848 35 61
4.7396626 0.33803058 -0.42832285 34 17
4.7867355 0.19744748 -0.22339749 35 31
4.7831769 0.33776313 -0.098855987 33 46
4.763021 0.19564989 -0.56832433 38 10
4.7890782 0.33817789 -0.032434743 32 54
4.7314892 0.47363904 -0.23822868 27 29
4.7343712 0.4739272 -0.17149395 36 37
4.6449466 0.60273308 -0.50408643 25 12
4.5868163 0.87142581 -0.25820383 97 27
4.6614561 0.60405004 -0.44008404 30 16
4.6721468 0.60460752 -0.37531769 23 20
4.6719437 0.60458118 -0.30967799 25 24
4.6957989 0.60600448 -0.24542128 25 28
4.7038045 0.60620379 -0.17998579 29 36
4.7109046 0.60628384 -0.1143757 29 44
4.7219586 0.6077078 -0.047830593 31 52
4.7253003 0.62239641 0.017336316 42 60
4.6618786 0.7534309 -0.18740086 33 35
4.6689444 0.75457531 -0.12208226 53 43
4.7510133 0.3263374 -0.36282399 35 21
4.7556639 0.3258214 -0.29680204 39 25
4.8013024 0.045648478 -0.48322856 31 14
4.7643213 0.3264116 -0.23096564 36 30
4.8026843 0.044822238 -0.41537693 43 18
4.7671351 0.32576752 -0.16477111 46 38
4.7979927 0.043944649 -0.34888187 36 22
4.7522659 0.46482849 -0.10671154 36 45
4.7332892 0.32180619 -0.59059846 30 9
4.7583466 0.46458411 -0.040579945 49 53
4.7392941 0.32221243 -0.49464279 29 13
4.7585306 0.46376371 0.025672795 46 61
4.7457819 0.32181925 -0.42877516 35 17
4.7873955 0.18073747 -0.22339749 41 31
4.7843266 0.32106468 -0.098855987 41 46
4.7686362 0.1792063 -0.56892067 56 10
4.7331133 0.45712018 -0.23822868 31 29
4.7409697 0.45787808 -0.17167543 53 37
4.6519542 0.58713865 -0.50462556 25 12
4.5849228 0.85449195 -0.2579256 97 27
4.6635361 0.58777487 -0.44008404 30 16
4.6742291 0.58829498 -0.37531769 28 20
4.6789756 0.58889294 -0.3100085 29 24
4.7028403 0.59023172 -0.24568209 32 28
4.7108488 0.59040266 -0.18017684 36 36
4.7179523 0.59045732 -0.11449698 35 44
4.729013 0.59184283 -0.047881208 37 52
4.7274446 0.60589826 0.017336316 54 60
4.6644797 0.73715329 -0.18740086 47 35
4.676486 0.73905492 -0.12221228 51 43
4.7521234 0.3097513 -0.36282399 36 21
4.7617526 0.30954111 -0.29711512 53 25
4.8014326 0.028888525 -0.48322856 39 14
4.7654319 0.30977905 -0.23096564 42 30
4.8077927 0.028082682 -0.41581097 55 18
4.7732296 0.30944669 -0.16494474 58 38
4.7981172 0.027196256 -0.34888187 46 22
4.7538595 0.44823715 -0.10671154 57 45
4.7393341 0.30559951 -0.5912208 35 9
4.7599387 0.44797155 -0.040579945 66 53
4.7453523 0.30598554 -0.49516457 43 13
4.7650986 0.44761759 0.025699848 60 61
4.7468762 0.30525139 -0.42877516 53 17
4.7929893 0.16419345 -0.22363217 67 31
4.7854185 0.3043623 -0.098855987 51 46
4.7741942 0.16272588 -0.56951708 63 10
4.7396526 0.44105792 -0.23848078 37 29
4.7475142 0.44178858 -0.17185688 60 37
4.7012944 0.71777272 -0.056841169 42 51
4.583746 0.83855164 -0.32251489 95 23
4.6589098 0.57150251 -0.50516468 30 12
4.6026092 0.84118342 -0.25876033 54 27
4.6704998 0.57209826 -0.44055372 34 16
4.6156926 0.84274971 -0.19432858 31 34
4.681201 0.57258093 -0.37571779 34 20
4.6810031 0.57255673 -0.3100085 42 24
4.7048717 0.57381219 -0.24568209 38 28
4.7128816 0.57395518 -0.18017684 49 36
4.7249465 0.57458901 -0.11461828 46 44
4.7360125 0.57593596 -0.047931816 53 52
4.7344918 0.59001154 0.017354641 50 60
4.7486763 0.59178078 0.083727829 53 68
4.6719613 0.72163093 -0.18760063 45 35
4.6839776 0.72349113 -0.1223423 52 43
4.7581515 0.29346666 -0.36320671 49 21
4.7677851 0.29322225 -0.29742822 57 25
4.7965298 0.01211954 -0.48272413 62 14
4.7664843 0.29314271 -0.23096564 46 30
4.8078609 0.011300186 -0.41581097 56 18
4.7792683 0.29308736 -0.16511837 63 38
4.8031693 0.0104545 -0.34924719 55 22
4.7553954 0.43164036 -0.10671154 59 45
4.7403722 0.2890543 -0.5912208 39 9
4.7664528 0.43180409 -0.040622707 50 53
4.7513552 0.28972027 -0.49568635 42 13
4.7716117 0.43143126 0.025726901 55 61
4.757854 0.28928089 -0.42967978 55 17
4.7935333 0.1474618 -0.22363217 67 31
4.7914414 0.28795442 -0.098959826 53 46
4.779695 0.14620885 -0.57011336 61 10
4.7411633 0.42451075 -0.23848078 42 29
4.7490273 0.42521399 -0.17185688 50 37
4.7037711 0.70135778 -0.056841169 34 51
4.5915537 0.82342952 -0.32286283 97 23
4.6707478 0.55641353 -0.50624293 36 12
4.6055174 0.82511228 -0.25876033 46 27
4.6774116 0.55638021 -0.44102335 39 16
4.6235228 0.82751578 -0.19453709 97 34
4.6831708 0.55623698 -0.37571779 42 20
4.6879263 0.55680239 -0.31033897 39 24
4.7118044 0.55797338 -0.24594288 52 28
4.7148557 0.5575006 -0.18017684 51 36
4.7269235 0.55809236 -0.11461828 50 44
4.7379942 0.55940068 -0.047931816 52 52
4.7365222 0.57348144 0.017354641 46 60
4.7407866 0.57399821 0.083551556 45 68
4.6793919 0.70606554 -0.18780042 47 35
4.6914167 0.70788407 -0.12247231 58 43
4.7641239 0.27714363 -0.36358947 53 21
4.7687793 0.2765778 -0.29742822 52 25
4.8064914 -0.0046415804 -0.483733 62 14
4.7724638 0.27679026 -0.23120902 53 30
4.8078718 -0.0054831207 -0.41581097 57 18
4.7852511 0.27668956 -0.16529198 53 38
4.8031764 -0.006312422 -0.34924719 44 22
4.7618527 0.41547224 -0.10682411 53 45
4.7463055 0.27278855 -0.59184313 55 9
4.767931 0.41516343 -0.040622707 67 53
4.7573023 0.27341685 -0.49620813 51 13
4.7681079 0.41434026 0.025699848 46 61
4.7588353 0.27267113 -0.42967978 57 17
4.7940187 0.13072835 -0.22363217 55 31
4.792417 0.27122742 -0.098959826 50 46
4.7851386 0.12965539 -0.57070971 61 10
4.7475915 0.40838581 -0.23873284 53 29
4.750483 0.40863419 -0.17185688 43 37
4.7111382 0.68565601 -0.056901384 43 51
4.5944004 0.80739701 -0.32286283 97 23
4.6775994 0.54067755 -0.50678205 51 12
4.6132855 0.80989695 -0.25903854 46 27
4.6793251 0.54004955 -0.44102335 42 16
4.6313033 0.8122375 -0.1947456 47 34
4.6850839 0.5398863 -0.37571779 54 20
4.6947975 0.5410068 -0.31066948 43 24
4.7137232 0.54152262 -0.24594288 50 28
4.7167735 0.54103929 -0.18017684 48 36
4.733809 0.54215825 -0.11473957 54 44
4.7399178 0.5428586 -0.047931816 45 52
4.7434611 0.55752867 0.017372968 44 60
4.7526917 0.55861461 0.083727829 41 68
4.681828 0.68972707 -0.18780042 43 35
4.6938586 0.69150364 -0.12247231 56 43
4.7650623 0.26051208 -0.36358947 48 21
4.7746987 0.26019982 -0.29774132 52 25
4.8014722 -0.021393294 -0.48322856 42 14
4.7783885 0.26039964 -0.23145242 43 30
4.8078227 -0.022265691 -0.41581097 57 18
4.781198 0.2597149 -0.16511837 45 38
4.7632737 0.39884773 -0.10682411 42 45
4.7521825 0.25648487 -0.59246546 47 9
4.7693515 0.3985177 -0.040622707 43 53
4.7582278 0.25680909 -0.49620813 43 13
4.774508 0.39810887 0.025726901 41 61
4.759758 0.25605804 -0.42967978 42 17
4.785562 0.11295135 -0.57070971 59 10
4.7489877 0.3918111 -0.23873284 44 29
4.7518802 0.3920494 -0.17185688 41 37
4.7135029 0.66920692 -0.056901384 44 51
4.6021061 0.79220366 -0.32321075 96 23
4.6794586 0.52434635 -0.50678205 54 12
4.6210046 0.79463756 -0.25931677 44 27
4.6861286 0.52426642 -0.44149303 47 16
4.6341105 0.79606622 -0.1947456 43 34
4.6918931 0.52408278 -0.37611791 48 20
4.6966577 0.52461559 -0.31066948 44 24
4.7155848 0.52506542 -0.24594288 45 28
4.7186332 0.52457136 -0.18017684 45 36
4.7356725 0.52563089 -0.11473957 42 44
4.7467527 0.52686203 -0.047982432 40 52
4.7503462 0.54153442 0.017391294 42 60
4.7496457 0.54145443 0.083639696 31 68
4.684207 0.6733802 -0.18780042 46 35
4.7580509 0.54157233 0.15018766 37 72
4.6962442 0.67511475 -0.12247231 46 43
4.7709222 0.24413042 -0.36397219 30 21
4.7755775 0.24353142 -0.29774132 32 25
4.7792678 0.24371836 -0.23145242 36 30
4.8126974 -0.039092332 -0.41624501 61 18
4.7870665 0.24327575 -0.16529198 31 38
4.7696199 0.3826175 -0.10693668 30 45
4.7480941 0.23964672 -0.59184313 28 9
4.7756977 0.38226554 -0.04066547 41 53
4.7590947 0.24019821 -0.49620813 25 13
4.7655959 0.23969029 -0.43013209 33 17
4.7958541 0.096440002 -0.57190245 91 10
4.7553048 0.37562433 -0.23898494 31 29
4.7582016 0.37585282 -0.17203836 42 37
4.7158103 0.65274954 -0.056901384 38 51
4.6097608 0.77696621 -0.32355866 38 23
4.686202 0.5085457 -0.50732124 43 12
4.7162547 0.65197241 0.0090713426 34 59
4.6286721 0.77933401 -0.25959504 42 27
4.6879301 0.50790554 -0.44149303 36 16
4.6467128 0.78154814 -0.19516261 39 34
4.6986489 0.50823849 -0.37651804 40 20
4.6440215 0.7810939 -0.12971868 68 42
4.7034211 0.50875521 -0.31099999 32 24
4.7223535 0.50913751 -0.24620369 38 28
4.7204356 0.50809711 -0.18017684 31 36
4.7374787 0.5090971 -0.11473957 36 44
4.6056714 0.77131498 -0.38829389 83 19
4.7485633 0.51028949 -0.047982432 28 52
4.7472382 0.52439976 0.017372968 34 60
4.7564759 0.52542126 0.083727829 28 68
4.6865292 0.65702522 -0.18780042 38 35
4.7599125 0.52496034 0.15018766 36 72
4.7035208 0.65941328 -0.12260231 38 43
4.7717452 0.22747532 -0.36397219 20 21
4.7763987 0.22686006 -0.29774132 28 25
4.7800899 0.22703412 -0.23145242 28 30
4.8125315 -0.055891544 -0.41624501 57 18
4.7878861 0.22656427 -0.16529198 31 38
4.770926 0.36596611 -0.10693668 31 45
4.7538576 0.22330239 -0.59246546 25 9
4.7819881 0.36597389 -0.040708225 30 53
4.7648716 0.22381604 -0.49672988 20 13
4.7713776 0.22328487 -0.43058434 28 17
4.7961617 0.079698764 -0.57190245 42 10
4.756587 0.35902292 -0.23898494 25 29
4.7644672 0.35961682 -0.17221984 32 37
4.7230144 0.63695425 -0.0569616 40 51
4.6173658 0.76168507 -0.32390654 41 23
4.6928921 0.49270424 -0.50786036 30 12
4.7234569 0.63617474 0.0090809427 40 59
4.6313643 0.76317221 -0.25959504 42 27
4.6946254 0.49205807 -0.44196272 27 16
4.6543412 0.76613742 -0.19537112 34 34
4.7053514 0.49235323 -0.3769182 20 20
4.6615138 0.76732224 -0.1301349 100 42
4.7101302 0.49285382 -0.3113305 25 24
4.7290683 0.49316883 -0.24646451 20 28
4.7271495 0.49213454 -0.18036792 38 36
4.7392268 0.49255708 -0.11473957 25 44
4.608336 0.75523347 -0.38829389 37 19
4.7503152 0.49371082 -0.047982432 30 52
4.7589831 0.50888997 0.017409621 32 60
4.7533102 0.50828272 0.083639696 29 68
4.6887941 0.64066213 -0.18780042 40 35
4.7008429 0.64231259 -0.12247231 39 43
4.7774906 0.21103574 -0.36435488 25 21
4.7821474 0.21040362 -0.29805437 30 25
4.7808533 0.21034713 -0.23145242 30 30
4.8123074 -0.07269007 -0.41624501 48 18
4.7936397 0.21006714 -0.16546561 32 38
4.7721748 0.34931022 -0.10693668 32 45
4.7595644 0.2069208 -0.59308779 28 9
4.7782497 0.34891582 -0.04066547 32 53
4.7656236 0.20718217 -0.49672988 23 13
4.7721276 0.20662829 -0.43058434 30 17
4.8013744 0.063018933 -0.5724988 82 10
4.7627926 0.34277505 -0.23923706 30 29
4.7656937 0.34298354 -0.17221984 36 37
4.7252088 0.62046397 -0.0569616 29 51
4.6199961 0.74556279 -0.32390654 25 23
4.6945829 0.47632 -0.50786036 25 12
4.7256489 0.61968291 0.0090809427 40 59
4.6340003 0.74700111 -0.25959504 29 27
4.7012672 0.47616994 -0.4424324 25 16
4.6569877 0.7498861 -0.19537112 26 34
4.7119999 0.47642741 -0.37731829 23 20
4.6592302 0.75024849 -0.12999615 50 42
4.7167854 0.47691181 -0.31166095 23 24
4.7307606 0.47665828 -0.24646451 25 28
4.7338099 0.47613126 -0.18055899 28 36
4.7458906 0.476511 -0.11486085 30 44
4.6207819 0.74072564 -0.38912889 33 19
4.7569847 0.4776262 -0.048033047 33 52
4.7607307 0.49227494 0.017409621 36 60
4.7600284 0.49220222 0.083727829 31 68
4.6959543 0.62495208 -0.18800022 34 35
4.712965 0.62722182 -0.12273233 30 43
4.7781978 0.19435789 -0.36435488 31 21
4.7828526 0.19370951 -0.29805437 36 25
4.7865481 0.19385792 -0.23169577 36 30
4.789351 0.19313328 -0.16529198 35 38
4.7783523 0.33299711 -0.10704925 39 45
4.7652149 0.19050205 -0.59371012 29 9
4.7894139 0.33292681 -0.040750988 35 53
4.771287 0.19074275 -0.49725166 30 13
4.77282 0.18996921 -0.43058434 37 17
4.7639599 0.32614774 -0.23923706 33 29
4.7668619 0.32634607 -0.17221984 48 37
4.732305 0.60460144 -0.057021808 31 51
4.622571 0.72943151 -0.32390654 37 23
4.7061119 0.4609001 -0.50893861 28 12
4.7327428 0.60381794 0.0090905409 40 59
4.641511 0.731601 -0.25987327 29 27
4.7029009 0.45975658 -0.4424324 29 16
4.6595764 0.73362565 -0.19537112 32 34
4.708674 0.45949197 -0.3769182 29 20
4.6716938 0.73554045 -0.13027363 53 42
4.7184215 0.46044427 -0.31166095 30 24
4.7323956 0.46014193 -0.24646451 33 28
4.7404165 0.46008757 -0.18075006 34 36
4.7525001 0.46042445 -0.11498214 37 44
4.6233397 0.72459155 -0.38912889 34 19
4.7586231 0.46101832 -0.048033047 40 52
4.7624197 0.47565392 0.017409621 51 60
4.7567425 0.47508627 0.083639696 36 68
4.7030616 0.60919976 -0.18820001 32 35
4.7151256 0.61076665 -0.12273233 48 43
4.7838292 0.17786123 -0.36473763 37 21
4.7884865 0.17719592 -0.29836747 43 25
4.7921863 0.1773316 -0.23193915 53 30
4.7794857 0.31631553 -0.10704925 46 45
4.7757664 0.17422558 -0.59495479 32 9
4.7855582 0.31587785 -0.040708225 42 53
4.7768931 0.17426631 -0.49777347 36 13
4.7784305 0.17348678 -0.43103665 40 17
4.7700529 0.30983958 -0.23948915 40 29
4.767972 0.30970466 -0.17221984 66 37
4.7343864 0.58807892 -0.057021808 50 51
4.6300182 0.71405441 -0.32425448 39 23
4.7126408 0.44493768 -0.50947773 31 12
4.7348213 0.58729392 0.0090905409 41 59
4.6489697 0.7161575 -0.26015148 35 27
4.7143884 0.44427276 -0.44337174 31 16
4.7391987 0.58783829 0.075279869 83 67
4.6670465 0.71811873 -0.19557963 37 34
4.7152109 0.44352013 -0.37731829 36 20
4.674233 0.71922868 -0.13027363 52 42
4.7199998 0.4439711 -0.31166095 38 24
4.7389445 0.44408646 -0.24672532 41 28
4.7469673 0.44400337 -0.18094112 41 36
4.6395726 0.71138865 -0.45587569 96 15
4.7590551 0.44429752 -0.11510343 53 44
4.6258402 0.70844865 -0.38912889 43 19
4.7651811 0.44487011 -0.048083663 51 52
4.764051 0.45902705 0.017409621 55 60
4.7633481 0.45895925 0.083727829 39 68
4.7101154 0.59340549 -0.18839978 44 35
4.7221875 0.59493053 -0.12286235 50 43
4.6988859 0.73227477 -0.06507843 99 50
4.6173954 0.8586424 -0.20267166 104 33
4.7844205 0.16116147 -0.36473763 56 21
4.7890759 0.1604799 -0.29836747 57 25
4.7927761 0.16060267 -0.23193915 57 30
4.780561 0.29963005 -0.10704925 64 45
4.786263 0.15787777 -0.59619951 37 9
4.7824426 0.15775304 -0.49829525 56 13
4.7839842 0.15696751 -0.43148896 54 17
4.7711053 0.29318708 -0.23948915 48 29
4.7740116 0.29336533 -0.17240132 56 37
4.741374 0.57214987 -0.05708202 46 51
4.6423464 0.69937998 -0.32495031 41 23
4.7141652 0.42848477 -0.50947773 39 12
4.741807 0.57136256 0.0091001401 40 59
4.6514416 0.69992524 -0.26015148 46 27
4.7159104 0.42781374 -0.44337174 53 16
4.7511487 0.57249141 0.075438686 94 67
4.6744642 0.70256853 -0.19578813 41 34
4.721694 0.42750823 -0.37771842 52 20
4.6865997 0.70439953 -0.1305511 51 42
4.7264895 0.42794296 -0.31199145 39 24
4.7404661 0.42754176 -0.24672532 51 28
4.7484889 0.42743072 -0.18094112 48 36
4.6420279 0.69518912 -0.45587569 97 15
4.7605777 0.42768264 -0.11510343 52 44
4.6381407 0.69377708 -0.38996395 39 19
4.7667055 0.42823383 -0.048083663 51 52
4.7706027 0.44285733 0.017427947 52 60
4.7121587 0.57696056 -0.18839978 47 35
4.7242355 0.57844341 -0.12286235 57 43
4.6964712 0.71511275 -0.06500949 39 50
4.6203642 0.8425194 -0.20267166 40 33
4.7849545 0.14445975 -0.36473763 56 21
4.7945952 0.14390999 -0.29868054 53 25
4.7982998 0.14401993 -0.23218255 58 30
4.7815776 0.28294098 -0.10704925 52 45
4.7867846 0.14116964 -0.59619951 53 9
4.7829642 0.14105825 -0.49829525 55 13
4.7845025 0.14026733 -0.43148896 57 17
4.7720995 0.27653104 -0.23948915 50 29
4.7750058 0.27669916 -0.17240132 43 37
4.7433419 0.55559593 -0.05708202 43 51
4.6447592 0.68317091 -0.32495031 45 23
4.715632 0.41202667 -0.50947773 46 12
4.743772 0.55480707 0.0091001401 40 59
4.6587949 0.68441278 -0.26042974 51 27
4.7223339 0.41178256 -0.44384143 43 16
4.743187 0.5547384 0.075279869 32 67
4.676888 0.68624735 -0.19578813 40 34
4.7231574 0.41102386 -0.37771842 53 20
4.6890297 0.68803596 -0.1305511 50 42
4.7279544 0.41144183 -0.31199145 51 24
4.7469034 0.41142347 -0.24698611 49 28
4.7499518 0.41085276 -0.18094112 47 36
4.6444263 0.67898124 -0.45587569 97 15
4.7670212 0.41149294 -0.11522473 57 44
4.6405339 0.67758268 -0.38996395 43 19
4.7681708 0.4115923 -0.048083663 47 52
4.77212 0.42620215 0.017427947 48 60
4.7141438 0.56050849 -0.18839978 44 35
4.7311897 0.56254113 -0.12299237 60 43
4.7038836 0.69945282 -0.06507843 50 50
4.7043276 0.69951904 0.00082379533 6 58
4.6281939 0.82726908 -0.20288889 38 33
4.7904129 0.12788762 -0.36512035 54 21
4.7950683 0.12717286 -0.29868054 51 25
4.7987728 0.12726986 -0.23218255 59 30
4.7875266 0.26652569 -0.10716181 43 45
4.7872481 0.12445979 -0.59619951 58 9
4.7834272 0.12436173 -0.49829525 43 13
4.7849631 0.12356546 -0.43148896 44 17
4.7780218 0.26014251 -0.23974125 41 29
4.7809324 0.26030064 -0.17258281 45 37
4.7452526 0.5390352 -0.05708202 42 51
4.6471157 0.66695356 -0.32495031 49 23
4.7219954 0.39597952 -0.51001686 57 12
4.750648 0.53881001 0.0091097401 40 59
4.6611557 0.66814649 -0.26042974 49 27
4.723743 0.39529604 -0.44384143 55 16
4.7550297 0.53930843 0.075438686 39 67
4.679255 0.66991782 -0.19578813 44 34
4.7295303 0.39494973 -0.37811854 54 20
4.6864557 0.67095286 -0.13041237 48 42
4.734334 0.39535141 -0.31232196 49 24
4.748311 0.39485121 -0.24698611 48 28
4.7563362 0.39468363 -0.18113218 43 36
4.6516938 0.66347045 -0.45636275 97 15
4.7684283 0.39485043 -0.11522473 45 44
4.6478028 0.66208553 -0.39038146 46 19
4.7695785 0.39494577 -0.048083663 39 52
4.7735786 0.40954173 0.017427947 50 60
4.7210345 0.54462391 -0.18859957 42 35
4.7380886 0.54659718 -0.12312236 60 43
4.7062964 0.68302894 -0.06507843 39 50
4.7067404 0.68309361 0.00082379533 99 58
4.631053 0.81110865 -0.20288889 43 33
4.6629276 0.81671757 -0.13861205 43 41
4.7908301 0.11116518 -0.36512035 38 21
4.7954826 0.11043417 -0.29868054 35 25
4.7884278 0.24981248 -0.10716181 39 45
4.8025331 0.10807828 -0.59806651 55 9
4.7838326 0.10766369 -0.49829525 37 13
4.7853651 0.10686207 -0.43148896 33 17
4.7838879 0.24371605 -0.23999332 29 29
4.7818122 0.24361052 -0.17258281 35 37
4.7520752 0.52301651 -0.057142235 38 51
4.6543541 0.65142214 -0.32529819 47 23
4.728303 0.37989289 -0.51055598 41 12
4.7525001 0.52222383 0.0091097401 38 59
4.6684036 0.65256584 -0.26070797 44 27
4.7300558 0.37920302 -0.44431108 41 16
4.7519135 0.52215922 0.075359277 38 67
4.6815648 0.65358013 -0.19578813 41 34
4.7308798 0.37843817 -0.37811854 50 20
4.6937184 0.65528393 -0.1305511 40 42
4.7406578 0.37922147 -0.31265247 41 24
4.7546377 0.37867111 -0.24724692 41 28
4.7576852 0.37807849 -0.18113218 31 36
4.6441245 0.64585251 -0.45538864 39 15
4.7697778 0.37820309 -0.11522473 34 44
4.6500859 0.64585757 -0.39038146 50 19
4.7759128 0.37869021 -0.048134279 31 52
4.7799616 0.39328685 0.017446272 43 60
4.7229071 0.52814108 -0.18859957 40 35
4.7399678 0.53005481 -0.12312236 52 43
4.7037024 0.66589308 -0.06500949 36 50
4.7140465 0.66736346 0.00082466804 97 58
4.6338563 0.79493833 -0.20288889 37 33
4.6509752 0.79788911 -0.13816968 84 41
4.7911892 0.094441392 -0.36512035 30 21
4.7958388 0.093694143 -0.29868054 25 25
4.8028808 0.091313653 -0.59806651 53 9
4.7941222 0.091150068 -0.49933878 23 13
4.790688 0.090249501 -0.43194124 25 17
4.7896981 0.2272518 -0.24024542 30 29
4.7826333 0.2269174 -0.17258281 31 37
4.7588429 0.50695676 -0.057202451 34 51
4.6566 0.63517141 -0.32529819 40 23
4.7246447 0.36300436 -0.51001686 38 12
4.7542934 0.50563133 0.0091097401 34 59
4.6755986 0.63694274 -0.26098621 37 27
4.7313504 0.36268976 -0.44431108 37 16
4.7586784 0.50609922 0.075438686 31 67
4.6838179 0.63723445 -0.19578813 35 34
4.732172 0.36192206 -0.37811854 37 20
4.6910253 0.63821918 -0.13041237 35 42
4.7369781 0.3622902 -0.31232196 25 24
4.7559304 0.36207196 -0.24724692 28 28
4.763958 0.36184776 -0.18132326 32 36
4.6512818 0.63030863 -0.45587569 40 15
4.7710686 0.36155114 -0.11522473 30 44
4.6572485 0.63029289 -0.39079899 49 19
4.7821898 0.36239517 -0.04818489 28 52
4.7247214 0.51165187 -0.18859957 36 35
4.7417889 0.51350605 -0.12312236 35 43
4.7109499 0.65015638 -0.06507843 25 50
4.7163472 0.65090436 0.00082466804 46 58
4.6415281 0.77958953 -0.20310611 40 33
4.6734443 0.7849763 -0.13875952 52 41
4.7964749 0.077795625 -0.3655031 30 21
4.8011265 0.077031344 -0.29899365 29 25
4.7993832 0.074490398 -0.49986055 25 13
4.7959523 0.073601052 -0.43239352 29 17
4.7854729 0.21031253 -0.23999332 30 29
4.7883878 0.21044032 -0.17276427 34 37
4.7556105 0.48982829 -0.057142235 32 51
4.6587887 0.61891299 -0.32529819 35 23
4.7308397 0.34687412 -0.51055598 28 12
4.7610035 0.48954582 0.0091193393 30 59
4.6777935 0.62061793 -0.26098621 31 27
4.7375517 0.34653571 -0.44478074 25 16
4.7554431 0.48897219 0.075359277 32 67
4.6909657 0.62153989 -0.19599664 27 34
4.7383776 0.34576479 -0.37851867 35 20
4.7031336 0.62315917 -0.13068984 35 42
4.7431898 0.34611648 -0.31265247 25 24
4.7571654 0.34546849 -0.24724692 25 28
4.770175 0.34557781 -0.18151434 29 36
4.6534534 0.61406875 -0.45587569 36 15
4.7723017 0.34489486 -0.11522473 32 44
4.6594205 0.61403227 -0.39079899 36 19
4.7834258 0.34570006 -0.04818489 30 52
4.7314472 0.49567857 -0.18879937 42 35
4.7435527 0.49695092 -0.12312236 34 43
4.7131906 0.63370818 -0.06507843 25 50
4.7185907 0.63443726 0.00082466804 49 58
4.7230768 0.63504308 0.066866569 38 66
4.6442208 0.76338279 -0.20310611 38 33
4.6613626 0.76621455 -0.13831714 97 41
4.8017015 0.061114106 -0.36588579 35 21
4.8013659 0.060271818 -0.29899365 32 25
4.794642 0.05767883 -0.49933878 32 13
4.7961802 0.056859609 -0.43239352 34 17
4.7911677 0.19380811 -0.24024542 34 29
4.789093 0.19372442 -0.17276427 37 37
4.7622662 0.47372168 -0.057202451 34 51
4.6708136 0.6039319 -0.32599404 36 23
4.7419395 0.33105177 -0.51163429 28 12
4.7626834 0.47292385 0.0091193393 34 59
4.6848822 0.60492772 -0.26126444 36 27
4.7387328 0.3299965 -0.44478074 29 16
4.7620959 0.47286531 0.075438686 32 67
4.698061 0.60580331 -0.19620515 34 34
4.7445273 0.32956856 -0.3789188 33 20
4.7102365 0.60738033 -0.13082857 38 42
4.7493463 0.32990384 -0.31298295 29 24
4.69171 0.74433714 -0.073237836 10 49
4.7633233 0.3292056 -0.24750774 34 28
4.7663679 0.3285805 -0.18132326 35 36
4.6605039 0.59845805 -0.45636275 27 15
4.7784638 0.32857776 -0.11534601 40 44
4.6714196 0.59903723 -0.39163405 28 19
4.7895918 0.32934421 -0.048235506 32 52
4.7381191 0.47966465 -0.18899916 31 35
4.7452583 0.4803898 -0.12312236 38 43
4.7203312 0.61790383 -0.06514737 29 50
4.7257342 0.6186142 0.00082554074 45 58
4.7351785 0.61985588 0.067007929 96 66
4.6517887 0.74796379 -0.20332333 28 33
4.6640096 0.74993873 -0.13831714 52 41
4.8018856 0.044352669 -0.36588579 40 21
4.8015471 0.043511558 -0.29899365 38 25
4.7948141 0.040942054 -0.49933878 40 13
4.8013287 0.040157452 -0.43284583 38 17
4.7918148 0.17708263 -0.24024542 40 29
4.7638912 0.45709538 -0.057202451 40 51
4.6728935 0.58762407 -0.32599404 35 23
4.7430663 0.31449729 -0.51163429 32 12
4.7643051 0.45629609 0.0091193393 42 59
4.6919184 0.58919561 -0.26154268 33 27
4.744823 0.31378227 -0.44525042 33 16
4.7637172 0.45623961 0.075438686 37 67
4.7051039 0.59002483 -0.19641367 36 34
4.7456489 0.31300506 -0.3789188 39 20
4.712328 0.59093487 -0.13082857 43 42
4.7504687 0.3133235 -0.31298295 36 24
4.6942797 0.7279554 -0.073237836 103 49
4.7644439 0.3125765 -0.24750774 40 28
4.7724714 0.31226754 -0.18151434 39 36
4.6625648 0.58218622 -0.45636275 36 15
4.7795815 0.31189582 -0.11534601 49 44
4.6734824 0.58272731 -0.39163405 31 19
4.7907124 0.31262344 -0.048235506 37 52
4.7447367 0.46361005 -0.18919893 39 35
4.756856 0.46479839 -0.1233824 52 43
4.7274184 0.60205746 -0.06521631 39 50
4.7278643 0.6021145 0.00082554074 49 58
4.7273951 0.60205448 0.066866569 95 66
4.6593051 0.73250121 -0.20354056 40 33
4.6665983 0.73365378 -0.13831714 61 41
4.802011 0.027590688 -0.36588579 57 21
4.804873 0.024251647 -0.50038236 56 13
4.8014398 0.023397442 -0.43284583 55 17
4.7973943 0.16052145 -0.24049753 57 29
4.7704363 0.44092536 -0.057262667 96 51
4.6798668 0.57191694 -0.32634196 40 23
4.7490964 0.29825109 -0.51217341 41 12
4.7708473 0.44012377 0.0091289394 42 59
4.6939464 0.57281417 -0.26154268 45 27
4.7458892 0.29721782 -0.44525042 41 16
4.7652807 0.43960834 0.075438686 75 67
4.7071347 0.57359731 -0.19641367 51 34
4.7516866 0.29674894 -0.37931892 52 20
4.7193232 0.57508951 -0.1309673 51 42
4.7565131 0.29705086 -0.31331345 46 24
4.6967921 0.71156496 -0.073237836 38 49
4.7704897 0.29625362 -0.24776855 53 28
4.7785196 0.29591602 -0.1817054 53 36
4.6695085 0.56650943 -0.45684981 47 15
4.7806411 0.29521003 -0.11534601 57 44
4.675488 0.56641024 -0.39163405 38 19
4.7512999 0.44751519 -0.18939872 47 35
4.7634258 0.44866142 -0.12351242 59 43
4.7344522 0.58616906 -0.065285251 43 50
4.734899 0.58622462 0.00082641334 48 58
4.7443519 0.58740038 0.06707862 42 66
4.6667709 0.71699512 -0.20375779 48 33
4.6740704 0.71812248 -0.13846458 65 41
4.8070636 0.010837946 -0.36626852 61 21
4.7999554 0.0074732872 -0.49986055 53 13
4.8014922 0.0066371448 -0.43284583 58 17
4.7929339 0.14362542 -0.24024542 63 29
4.7769256 0.42471516 -0.057322875 45 51
4.6867871 0.5561682 -0.32668984 44 23
4.7501082 0.28167188 -0.51217341 58 12
4.7773352 0.42391127 0.0091385376 41 59
4.7008753 0.55701602 -0.26182091 50 27
4.7518673 0.28094411 -0.44572011 56 16
4.7091084 0.55716282 -0.19641367 41 34
4.757669 0.28045452 -0.37971905 54 20
4.721302 0.55861253 -0.1309673 53 42
4.7625012 0.2807399 -0.31364396 53 24
4.6943026 0.69443023 -0.073160179 58 49
4.7714949 0.27959973 -0.24776855 53 28
4.7745352 0.27894208 -0.18151434 50 36
4.6714573 0.5502063 -0.45684981 44 15
4.7866316 0.27881187 -0.1154673 63 44
4.6774364 0.55008626 -0.39163405 44 19
4.7528329 0.43092734 -0.18939872 43 35
4.7649627 0.43203124 -0.12351242 55 43
4.7364697 0.56963921 -0.065285251 43 50
4.7369165 0.56969321 0.00082641334 49 58
4.7314835 0.56903672 0.066866569 43 66
4.6692448 0.70070076 -0.20375779 53 33
4.6508055 0.55846441 0.13064688 98 71
4.6814899 0.70254821 -0.13861205 64 41
4.8070717 -0.0059425728 -0.36626852 59 21
4.8064656 -0.010136067 -0.43329814 62 17
4.7983985 0.12702566 -0.24049753 44 29
4.778379 0.40803799 -0.057322875 50 51
4.6936545 0.54037815 -0.32703778 48 23
4.7560258 0.26536667 -0.51271254 60 12
4.7787857 0.4072327 0.0091385376 40 59
4.7077498 0.54117638 -0.26209918 52 27
4.7577896 0.26463228 -0.44618979 53 16
4.7159867 0.54129398 -0.19662215 40 34
4.7586188 0.26384544 -0.37971905 53 20
4.728188 0.54270142 -0.13110605 52 42
4.7634521 0.26411396 -0.31364396 48 24
4.7016449 0.67875803 -0.073237836 43 49
4.7774267 0.26321763 -0.24802937 53 28
4.7854571 0.26282325 -0.18189646 41 36
4.6782932 0.53446418 -0.45733681 49 15
4.7875757 0.26210171 -0.1154673 54 44
4.6842775 0.53432304 -0.39205152 46 19
4.7543082 0.41433424 -0.18939872 43 35
4.771421 0.41583142 -0.12364243 54 43
4.7384291 0.55310237 -0.065285251 38 50
4.7438421 0.55373734 0.00082728598 46 58
4.7384057 0.55309963 0.066937245 38 66
4.6716628 0.68439776 -0.20375779 42 33
4.8165421 0.56141263 0.13528274 62 71
4.6839137 0.68620253 -0.13861205 65 41
