# .PCD v0.7 - Point Cloud Data file format
VERSION 0.7
FIELDS x y z intensity ring
SIZE 4 4 4 4 2
TYPE F F F F U
COUNT 1 1 1 1 1
WIDTH 1195
HEIGHT 1
VIEWPOINT 0 0 0 1 0 0 0
POINTS 1195
DATA ascii
4.6778736 -0.41144463 -0.30868649 23 24
4.8203793 0.0013012318 -0.074325144 37 49
4.6915178 -0.41429356 -0.24411722 30 28
4.84095 0.00047787232 -0.0075483476 31 57
4.6943865 -0.41537225 -0.17883937 23 36
4.7265897 -0.13883378 -0.45928499 36 15
4.6963472 -0.41637164 -0.11352667 36 44
4.7325187 -0.13983124 -0.39372161 31 19
4.7206283 0.013555387 -0.53375375 85 11
4.7348685 -0.26633108 -0.18820001 24 35
4.747015 -0.26701018 -0.12273233 33 43
4.7888646 -0.12891717 -0.065561011 21 50
4.7993126 -0.12919259 0.00083164935 31 58
4.7988362 -0.12918003 0.067361355 20 66
4.7914491 0.011306151 -0.20679894 32 33
4.8038688 0.01134517 -0.1406765 42 41
4.7567835 -0.29254872 -0.0569616 28 51
4.7371988 -0.15155281 -0.32808149 25 23
4.6645637 -0.42504704 -0.50408643 28 12
4.7512727 -0.15282519 -0.26293388 25 27
4.6660905 -0.42600715 -0.43867502 25 16
4.7644415 -0.15407375 -0.19745618 34 34
4.6716642 -0.42733753 -0.37371719 34 20
4.7717314 -0.15430538 -0.13152225 33 42
4.6764088 -0.42777097 -0.30868649 20 24
4.8153548 -0.015513495 -0.074247479 25 49
4.690043 -0.43066749 -0.24411722 29 28
4.8309231 -0.016394697 -0.0075326385 41 57
4.6929083 -0.43175623 -0.17883937 23 36
4.7260761 -0.15533182 -0.45928499 34 15
4.8605585 -0.016472282 0.059789084 97 65
4.7320013 -0.15634997 -0.39372161 24 19
4.7305827 -0.0029210267 -0.53488582 43 11
4.7339101 -0.28285724 -0.18820001 43 35
4.7460542 -0.28357872 -0.12273233 33 43
4.7833881 -0.14548345 -0.065492071 25 50
4.788837 -0.14564613 0.00082990405 32 58
4.7933588 -0.14578111 0.067290664 25 66
4.7914591 -0.0054198634 -0.20679894 31 33
4.8038788 -0.0054241987 -0.1406765 35 41
4.7507439 -0.30882859 -0.056901384 33 51
4.7366409 -0.1680878 -0.32808149 35 23
4.6680002 -0.44179463 -0.50462556 37 12
4.75071 -0.16940929 -0.26293388 32 27
4.6645751 -0.44229224 -0.43867502 29 16
4.7588825 -0.17052773 -0.19724768 34 34
4.6651826 -0.44317132 -0.37331706 32 20
4.7711639 -0.17096089 -0.13152225 43 42
4.66992 -0.44362083 -0.30835599 28 24
4.8102727 -0.032292459 -0.074169822 28 49
4.6835403 -0.44656274 -0.2438564 39 28
4.8258362 -0.03322712 -0.0075247837 37 57
4.6863985 -0.44766036 -0.17864831 28 36
4.7255049 -0.17182796 -0.45928499 29 15
4.8554711 -0.033408154 0.059727125 97 65
4.7314272 -0.17286681 -0.39372161 26 19
4.7255754 -0.019418007 -0.53431982 96 11
4.7328935 -0.29937997 -0.18820001 30 35
4.7400465 -0.29982996 -0.12260231 43 43
4.7828507 -0.16217969 -0.065492071 30 50
4.7882996 -0.1623614 0.00082990405 45 58
4.7878242 -0.16234556 0.067219988 35 66
4.7914109 -0.022145145 -0.20679894 29 33
4.7988324 -0.022173641 -0.14052904 48 41
4.7446494 -0.32506984 -0.056841169 37 51
4.7310414 -0.18442929 -0.32773361 36 23
4.6614823 -0.45760122 -0.50408643 37 12
4.7451015 -0.18579882 -0.26265562 40 27
4.6580486 -0.4580853 -0.43820533 36 16
4.7532659 -0.18694477 -0.19703917 35 34
4.6586466 -0.458965 -0.37291691 38 20
4.7655435 -0.18742071 -0.13138351 52 42
4.6633778 -0.45943058 -0.30802548 34 24
4.8101301 -0.049083248 -0.074169822 33 49
4.6769843 -0.46241793 -0.24359562 48 28
4.8206911 -0.05002423 -0.0075169289 43 57
4.6798363 -0.46352437 -0.17845725 32 36
4.7248769 -0.18832199 -0.45928499 37 15
4.8353276 -0.050164737 0.059479296 97 65
4.7307949 -0.1893815 -0.39372161 32 19
4.7254786 -0.035913225 -0.53431982 96 11
4.7268348 -0.31556791 -0.18800022 41 35
4.7439585 -0.31670526 -0.12273233 60 43
4.7772593 -0.17868991 -0.065423131 49 50
4.77771 -0.17870651 0.00082815869 50 58
4.7872286 -0.17905721 0.067219988 38 66
4.7913046 -0.038870156 -0.20679894 32 33
4.7987256 -0.03892456 -0.14052904 45 41
4.7384987 -0.34127226 -0.056780953 96 51
4.7303691 -0.20094258 -0.32773361 47 23
4.6598568 -0.47387001 -0.50408643 57 12
4.7394357 -0.20215125 -0.26237738 51 27
4.6564207 -0.47434217 -0.43820533 46 16
4.7525845 -0.20353563 -0.19703917 49 34
4.6570163 -0.47522393 -0.37291691 51 20
4.7598677 -0.20384341 -0.13124479 52 42
4.6567826 -0.47520009 -0.30769497 46 24
4.8049307 -0.065808862 -0.07409215 57 49
4.6703744 -0.47823277 -0.2433348 48 28
4.8154869 -0.066785827 -0.0075090742 47 57
4.6831594 -0.48036644 -0.17864831 41 36
4.7241902 -0.20481375 -0.45928499 49 15
4.8451219 -0.067173772 0.059603214 69 65
4.7251272 -0.20568004 -0.39330411 40 19
4.7302928 -0.052459165 -0.53488582 96 11
4.7207203 -0.33171719 -0.18780042 58 35
4.732852 -0.33256552 -0.12247231 60 43
4.7716112 -0.19516304 -0.065354191 36 50
4.7770572 -0.19538274 0.00082815869 51 58
4.7861452 -0.055540644 -0.20658174 51 33
4.7935634 -0.05562092 -0.14038157 54 41
4.7296386 -0.21745341 -0.32773361 51 23
4.6532311 -0.48961353 -0.50354731 51 12
4.7387009 -0.21869375 -0.26237738 50 27
4.649786 -0.49007195 -0.43773565 47 16
4.7468553 -0.21989566 -0.19683066 37 34
4.6503725 -0.49095437 -0.37251678 48 20
4.7541342 -0.22022875 -0.13110605 50 42
4.6550951 -0.49145243 -0.30769497 46 24
4.8046718 -0.082580805 -0.07409215 38 49
4.6686764 -0.4945325 -0.2433348 49 28
4.810226 -0.08351171 -0.0075012199 47 57
4.7135053 -0.22084285 -0.45831093 54 15
4.8098655 -0.083505735 0.059169512 46 65
4.7194033 -0.22194134 -0.39288658 49 19
4.7449827 -0.06917613 -0.5365839 97 11
4.7195339 -0.34819356 -0.18780042 41 35
4.7266774 -0.34871817 -0.1223423 58 43
4.7709007 -0.21181789 -0.065354191 36 50
4.7763462 -0.21205661 0.00082815869 50 58
4.7809267 -0.072175577 -0.2063645 39 33
4.7883425 -0.072281718 -0.14023411 62 41
4.7238688 -0.23371795 -0.32738569 51 23
4.6465521 -0.50531656 -0.50300819 45 12
4.732923 -0.23498884 -0.26209918 47 27
4.648047 -0.50629979 -0.43773565 43 16
4.7410688 -0.23621815 -0.19662215 34 34
4.6486306 -0.50718421 -0.37251678 42 20
4.7533364 -0.23682243 -0.13110605 46 42
4.6533513 -0.50769877 -0.30769497 42 24
4.799355 -0.099252254 -0.074014485 43 49
4.6619577 -0.51028353 -0.24307398 48 28
4.8099051 -0.10030203 -0.0075012199 45 57
4.7127061 -0.23729472 -0.45831093 57 15
4.8095446 -0.10029479 0.059169512 37 65
4.7185998 -0.23841377 -0.39288658 50 19
4.724844 -0.085395455 -0.53431982 39 11
4.7083273 -0.36389914 -0.18740086 42 35
4.7204475 -0.36483175 -0.12221228 44 43
4.7601442 -0.22799739 -0.06521631 35 50
4.7655878 -0.22825505 0.00082641334 46 58
4.7756515 -0.088774756 -0.20614727 37 33
4.7830644 -0.088906743 -0.14008665 55 41
4.7180429 -0.24994485 -0.32703778 34 23
4.6447601 -0.52153289 -0.50300819 39 12
4.7270885 -0.25124624 -0.26182091 35 27
4.6462512 -0.52252138 -0.43773565 20 16
4.7352271 -0.25250292 -0.19641367 22 34
4.6369267 -0.52229327 -0.37171656 45 20
4.7474895 -0.25314987 -0.1309673 39 42
4.6416354 -0.52282315 -0.30703399 20 24
4.7889838 -0.11577072 -0.073859163 40 49
4.6551867 -0.52599359 -0.24281317 46 28
4.8045268 -0.11697332 -0.0074933651 44 57
4.7118492 -0.25374371 -0.45831093 36 15
4.7991686 -0.11684705 0.059045594 31 65
4.7127628 -0.2546173 -0.39246905 40 19
4.7294841 -0.10199089 -0.53488582 43 11
4.7070289 -0.38033205 -0.18740086 41 35
4.7191458 -0.38130695 -0.12221228 41 43
4.7593198 -0.24461201 -0.06521631 22 50
4.7647619 -0.24488865 0.00082641334 42 58
4.7753119 -0.10544435 -0.20614727 42 33
4.7827249 -0.10560221 -0.14008665 60 41
4.712162 -0.26613396 -0.32668984 35 23
4.6330347 -0.53660029 -0.50192988 42 12
4.7261829 -0.26774535 -0.26182091 26 27
4.63451 -0.53759068 -0.43679634 23 16
4.7293286 -0.26874983 -0.19620515 22 34
4.6350751 -0.53847599 -0.37171656 38 20
4.7365966 -0.26915869 -0.13068984 32 42
4.6397824 -0.53902233 -0.30703399 23 24
4.7885509 -0.13248669 -0.073859163 29 49
4.6533222 -0.54224002 -0.24281317 41 28
4.7990904 -0.13360828 -0.0074855103 36 57
4.705966 -0.26990744 -0.45782387 36 15
4.7937336 -0.13346332 0.058983635 21 65
4.706871 -0.27078301 -0.39205152 31 19
4.7290993 -0.11849925 -0.53488582 35 11
4.695715 -0.39592421 -0.18700127 28 35
4.7078242 -0.39694104 -0.12195226 30 43
4.7534447 -0.26095241 -0.06514737 23 50
4.7588859 -0.26124805 0.00082554074 26 58
4.7699213 -0.12198886 -0.20593004 40 33
4.7723346 -0.12204868 -0.13979173 42 41
4.7062249 -0.28228503 -0.32634196 27 23
4.6261978 -0.55218083 -0.50139081 31 12
4.7152524 -0.28364724 -0.26126444 26 27
4.6326056 -0.55376488 -0.43679634 23 16
4.7283621 -0.28525662 -0.19620515 25 34
4.6331673 -0.55465215 -0.37171656 25 20
4.7356286 -0.28569087 -0.13068984 31 42
4.6279645 -0.55402994 -0.30637297 20 24
4.7880588 -0.14920105 -0.073859163 25 49
4.7935977 -0.15020674 -0.0074776551 28 57
4.7000279 -0.28603324 -0.45733681 26 15
4.7932382 -0.15019576 0.058983635 24 65
4.7058973 -0.28721142 -0.39205152 26 19
4.7187247 -0.13473047 -0.53375375 24 11
4.6943045 -0.41231292 -0.18700127 24 35
4.7475133 -0.27725476 -0.06507843 25 50
4.764473 -0.13849704 -0.20571281 28 33
4.7718787 -0.13870649 -0.13979173 38 41
4.7002335 -0.29839796 -0.32599404 30 23
4.6242428 -0.56832588 -0.50139081 39 12
4.7142334 -0.30010483 -0.26126444 34 27
4.6306443 -0.56993228 -0.43679634 23 16
4.7273374 -0.30175996 -0.19620515 34 34
4.6312027 -0.57082158 -0.37171656 30 20
4.7296138 -0.30190399 -0.1305511 44 42
4.6309543 -0.57079095 -0.30670348 23 24
4.7825122 -0.16574432 -0.073781498 27 49
4.7880478 -0.16676846 -0.0074698012 33 57
4.6990008 -0.30243763 -0.45733681 28 15
4.792685 -0.16692635 0.058983635 29 65
4.6998944 -0.30331829 -0.39163405 27 19
4.7182255 -0.15120108 -0.53375375 24 11
4.6928368 -0.42869657 -0.18700127 27 35
4.7415266 -0.2935189 -0.06500949 30 50
4.7639604 -0.1551273 -0.20571281 26 33
4.7663703 -0.15520386 -0.13964427 48 41
4.6991634 -0.31480297 -0.32599404 34 23
4.6123667 -0.58321798 -0.50031251 56 12
4.7081761 -0.31622705 -0.26098621 41 27
4.6236873 -0.58546799 -0.43632665 31 16
4.7212706 -0.31792673 -0.19599664 35 34
4.6192932 -0.58573127 -0.37091628 37 20
4.7285314 -0.31841153 -0.1305511 51 42
4.6140847 -0.58507144 -0.30571198 31 24
4.7769094 -0.18225071 -0.073703825 32 49
4.7874365 -0.18348086 -0.0074698012 42 57
4.6929517 -0.31850424 -0.45684981 36 15
4.787077 -0.18346736 0.058921684 34 65
4.6988068 -0.31972215 -0.39163405 32 19
4.717669 -0.16766983 -0.53375375 28 11
4.6813636 -0.44413471 -0.18660171 35 35
4.7354846 -0.30974463 -0.064940557 36 50
4.7583981 -0.17157963 -0.2054956 45 33
4.7657995 -0.17184067 -0.13964427 56 41
4.6930599 -0.33085626 -0.32564613 37 23
4.6103029 -0.59931457 -0.50031251 54 12
4.702064 -0.33231059 -0.26070797 49 27
4.6216159 -0.60160416 -0.43632665 39 16
4.7151484 -0.33405489 -0.19578813 61 34
4.6172209 -0.601852 -0.37091628 49 20
4.7224054 -0.33456489 -0.13041237 52 42
4.6169624 -0.60181838 -0.30604249 37 24
4.7712483 -0.19871999 -0.073626161 43 49
4.7767749 -0.19978097 -0.0074540912 47 57
4.6918111 -0.33488375 -0.45684981 42 15
4.7814121 -0.19997127 0.058859725 42 65
4.6926918 -0.3357693 -0.39121652 40 19
4.7170548 -0.18413654 -0.53375375 30 11
4.6797848 -0.460473 -0.18660171 52 35
4.734374 -0.3262727 -0.064940557 35 50
4.752779 -0.18799499 -0.20527837 40 33
4.7601771 -0.18828179 -0.13949682 61 41
4.6918759 -0.34723607 -0.32564613 52 23
4.7008753 -0.34872186 -0.26070797 54 27
4.6046863 -0.61575532 -0.43491763 57 16
4.7089715 -0.35014424 -0.19557963 46 34
4.6101518 -0.61730462 -0.37051618 51 20
4.7162237 -0.35067934 -0.13027363 50 42
4.7705255 -0.21537356 -0.073626161 39 49
4.7760482 -0.21645381 -0.0074540912 47 57
4.6906137 -0.3512592 -0.45684981 52 15
4.7806849 -0.21666031 0.058859725 91 65
4.6914907 -0.35214779 -0.39121652 49 19
4.7163835 -0.20060103 -0.53375375 35 11
4.7471027 -0.20437321 -0.20506114 52 33
4.759491 -0.20489676 -0.13949682 64 41
4.6856618 -0.36322898 -0.32529819 52 23
4.6946516 -0.36474496 -0.26042974 46 27
4.6025085 -0.63182497 -0.43491763 35 16
4.7027397 -0.36619446 -0.19537112 42 34
4.6030316 -0.63271511 -0.37011606 51 20
4.7149711 -0.36713988 -0.13027363 46 42
4.764751 -0.23178548 -0.073548496 39 49
4.7752638 -0.23312403 -0.0074540912 48 57
4.6843977 -0.36724424 -0.45636275 55 15
4.6852655 -0.36813456 -0.39079899 49 19
4.705729 -0.21661405 -0.5326218 46 11
4.7463603 -0.22094245 -0.20506114 38 33
4.7487612 -0.22105232 -0.13920189 54 41
4.6793942 -0.37918282 -0.32495031 47 23
4.6883731 -0.38072887 -0.26015148 35 27
4.5953455 -0.64719313 -0.43444794 47 16
4.7014327 -0.38260782 -0.19537112 27 34
4.5958586 -0.64808345 -0.36971593 51 20
4.7036972 -0.3827908 -0.12999615 41 42
4.7539272 -0.24790335 -0.073393166 40 49
4.7644339 -0.24927673 -0.0074383817 45 57
4.6781273 -0.38319021 -0.45587569 35 15
4.6789861 -0.38408217 -0.39038146 43 19
4.7049441 -0.23303881 -0.5326218 48 11
4.740571 -0.23726322 -0.20484391 41 33
4.7479606 -0.23762722 -0.13920189 51 41
4.6730714 -0.39509723 -0.3246024 33 23
4.687016 -0.39709201 -0.26015148 28 27
4.588131 -0.66251904 -0.43397826 45 16
4.6950912 -0.39859682 -0.19516261 23 34
4.5886359 -0.66340947 -0.36931577 47 20
4.7073131 -0.39962742 -0.1301349 43 42
4.7530332 -0.26449615 -0.073393166 28 49
4.763535 -0.26590618 -0.0074383817 39 57
4.6718025 -0.39909688 -0.45538864 36 15
4.6726527 -0.39999041 -0.38996395 29 19
4.699141 -0.24920157 -0.53205574 37 11
4.7297378 -0.25328311 -0.20440947 36 33
4.7471023 -0.25419924 -0.13920189 42 41
4.6716638 -0.4114069 -0.3246024 33 23
4.6806283 -0.41301441 -0.25987327 25 27
4.6886945 -0.41454616 -0.1949541 25 34
4.695931 -0.41518185 -0.12985742 23 42
4.7470899 -0.28079441 -0.073315501 26 49
4.7575865 -0.28224024 -0.0074305274 30 57
4.6703815 -0.41540202 -0.45538864 25 15
4.6712275 -0.41629857 -0.38996395 22 19
4.6932821 -0.26532668 -0.53148973 28 11
4.7288241 -0.26979145 -0.20440947 26 33
4.7362061 -0.27020672 -0.13890699 33 41
4.6701994 -0.42771152 -0.3246024 35 23
4.6791582 -0.42935032 -0.25987327 32 27
4.6872191 -0.43091026 -0.1949541 33 34
4.7410908 -0.29705444 -0.073237836 30 49
4.6639476 -0.43124691 -0.45490161 35 15
4.6697459 -0.43260163 -0.38996395 23 19
4.6923275 -0.28170764 -0.53148973 26 11
4.7228675 -0.28599846 -0.20419224 41 33
4.7302456 -0.28643942 -0.13875952 45 41
4.6686778 -0.44401097 -0.3246024 35 23
4.6726604 -0.44521031 -0.25959504 38 27
4.6856861 -0.44726908 -0.1949541 36 34
4.7350364 -0.31327605 -0.073160179 32 49
4.6673675 -0.44799706 -0.45538864 34 15
4.6682076 -0.44889945 -0.38996395 29 19
4.6913157 -0.29808521 -0.53148973 27 11
4.7268257 -0.30279803 -0.20440947 32 33
4.7292166 -0.30294931 -0.13875952 54 41
4.6621361 -0.45981827 -0.32425448 38 23
4.66611 -0.46103019 -0.25931677 42 27
4.6791253 -0.46313325 -0.1947456 40 34
4.7339139 -0.32980248 -0.073160179 38 49
4.6558714 -0.46330673 -0.45441455 36 15
4.661654 -0.4647004 -0.38954642 38 19
4.6852899 -0.31413081 -0.53092372 31 11
4.7207556 -0.31896305 -0.20419224 44 33
4.7281308 -0.31945547 -0.13875952 60 41
4.65554 -0.47558525 -0.32390654 49 23
4.6595049 -0.4768098 -0.25903854 47 27
4.6774797 -0.47946361 -0.1947456 40 34
4.7277479 -0.34596401 -0.073082514 59 49
4.6542258 -0.47955593 -0.45441455 52 15
4.6600037 -0.48096982 -0.38954642 46 19
4.684165 -0.33048362 -0.53092372 37 11
4.7146301 -0.33508939 -0.20397501 55 33
4.7220006 -0.33560738 -0.13861205 56 41
4.653851 -0.49183324 -0.32390654 48 23
4.6578126 -0.49307159 -0.25903854 44 27
4.6708093 -0.49526423 -0.19453709 39 34
4.7215261 -0.36208647 -0.073004842 66 49
4.6525235 -0.49579927 -0.45441455 53 15
4.6533413 -0.49670726 -0.38912889 48 19
4.6829829 -0.34683239 -0.53092372 46 11
4.7084503 -0.35117695 -0.20375779 49 33
4.7208004 -0.35208821 -0.13861205 55 41
4.6471477 -0.50753653 -0.32355866 46 23
4.6560631 -0.50932741 -0.25903854 38 27
4.6458178 -0.51149482 -0.45392749 35 15
4.646626 -0.51240414 -0.38871136 41 19
4.6767902 -0.36279666 -0.53035772 51 11
4.7022157 -0.36722544 -0.20354056 43 33
4.7095776 -0.36779448 -0.13831714 42 41
4.6354337 -0.52264297 -0.32286283 42 23
4.6344128 -0.52334762 -0.2579256 46 27
4.6440043 -0.52770865 -0.45392749 33 15
4.6398587 -0.52806026 -0.38829389 29 19
4.6705432 -0.37872195 -0.52979165 40 11
4.6959262 -0.38323456 -0.20332333 42 33
4.6983013 -0.38342655 -0.13802221 37 41
4.6335812 -0.53882051 -0.32286283 34 23
4.6474352 -0.54124552 -0.25876033 45 27
4.6322479 -0.54276353 -0.45295343 35 15
4.6379876 -0.54425317 -0.38829389 21 19
4.6642423 -0.39460799 -0.52922565 26 11
4.6895819 -0.39920437 -0.20310611 27 33
4.7019143 -0.4002443 -0.13816968 43 41
4.6316724 -0.55499142 -0.32286283 23 23
4.6256895 -0.55509692 -0.25764737 74 27
4.6303253 -0.55892974 -0.45295343 24 15
4.6311116 -0.55984426 -0.38787636 22 19
4.6628361 -0.41088685 -0.52922565 23 11
4.6881599 -0.4155716 -0.20310611 29 33
4.6855531 -0.41534263 -0.13772731 40 41
4.6297064 -0.57115567 -0.32286283 33 23
4.6234074 -0.57447845 -0.45246637 35 15
4.6291299 -0.57600641 -0.38787636 27 19
4.6564264 -0.42671132 -0.5286597 25 11
4.6866808 -0.43193382 -0.20310611 32 33
4.6227365 -0.58668768 -0.32251489 33 23
4.6213737 -0.5906136 -0.45246637 36 15
4.622148 -0.59153199 -0.38745883 37 19
4.6598539 -0.44342932 -0.52922565 29 11
4.6851439 -0.44829077 -0.20310611 41 33
4.6206598 -0.60282046 -0.32251489 96 23
4.6192842 -0.60674161 -0.45246637 52 15
4.6200552 -0.60766262 -0.38745883 46 19
4.6533341 -0.45920864 -0.5286597 36 11
4.6785803 -0.46415308 -0.20288889 48 33
4.6185274 -0.6189459 -0.32251489 96 23
4.6072745 -0.62153739 -0.45149225 38 15
4.6080298 -0.62245774 -0.3866238 52 19
4.6566448 -0.47595018 -0.52922565 44 11
4.6769314 -0.48048154 -0.20288889 77 33
4.6100063 -0.63829559 -0.45197931 98 15
4.6058292 -0.63853896 -0.3866238 51 19
4.6500144 -0.49168357 -0.5286597 52 11
4.598639 -0.65391386 -0.38620627 49 19
4.6433311 -0.50737649 -0.52809364 46 11
4.5913968 -0.6692462 -0.38578874 47 19
4.6415319 -0.52358168 -0.52809364 39 11
4.5841045 -0.68453604 -0.38537121 96 19
4.6396761 -0.53978044 -0.52809364 24 11
4.6328301 -0.55538523 -0.52752763 97 11
4.8153973 0.26286021 -0.28353932 43 26
4.8162856 0.24604976 -0.28353932 56 26
4.8071432 0.2287695 -0.28294799 54 26
4.8256326 0.22879088 -0.2169061 74 32
4.8128991 0.21220402 -0.28324366 54 26
4.8214116 0.21172962 -0.21668017 53 32
4.8036356 0.19500545 -0.28265232 54 26
4.8271117 0.1950963 -0.2169061 48 32
4.7849288 0.17753334 -0.34815124 43 22
4.7992997 0.17805529 -0.28235668 53 26
4.8227725 0.17806494 -0.21668017 38 32
4.8004704 0.16132052 -0.34924719 28 22
4.7998915 0.16130152 -0.28235668 37 26
4.8183722 0.16106622 -0.21645422 34 32
4.8359394 0.16079485 -0.15009114 43 40
4.7810664 0.14397798 -0.34778589 25 22
4.8004255 0.14454578 -0.28235668 29 26
4.8238978 0.14439157 -0.21668017 25 32
4.8314753 0.14376852 -0.14993496 51 40
4.7915101 0.12754567 -0.34851655 30 22
4.8009005 0.12778829 -0.28235668 28 26
4.8243723 0.12755214 -0.21668017 28 32
4.8319478 0.12690264 -0.14993496 52 40
4.781671 0.11142525 -0.41364077 43 18
4.7919259 0.11081941 -0.34851655 29 22
4.7963271 0.11091775 -0.28206101 37 26
4.8197947 0.11060045 -0.21645422 25 32
4.8273659 0.10992534 -0.14977878 47 40
4.8539791 0.1105107 -0.083280146 56 48
4.77705 0.094638675 -0.41320673 62 18
4.7872982 0.093997799 -0.34815124 30 22
4.8016758 0.094268851 -0.28235668 49 26
4.8151574 0.093682282 -0.21622828 25 32
4.8227229 0.092981569 -0.1496226 49 40
4.8393402 0.09328904 -0.083020978 46 48
4.8301396 0.2330011 -0.22550945 69 31
4.7773514 0.077963084 -0.41320673 66 18
4.7875967 0.077286437 -0.34815124 56 22
4.7969847 0.077430636 -0.28206101 52 26
4.815455 0.076873675 -0.21622828 31 32
4.8230181 0.07614655 -0.1496226 47 40
4.844635 0.076471046 -0.083107367 46 48
4.8259339 0.21591888 -0.22527479 68 31
4.7676334 0.061166566 -0.41233864 69 18
4.7778649 0.060455773 -0.3474206 56 22
4.7922349 0.060626328 -0.28176534 53 26
4.810699 0.060005724 -0.21600233 47 32
4.8232546 0.059310615 -0.1496226 49 40
4.8348746 0.05944448 -0.082934588 40 48
4.8266587 0.1990719 -0.22527479 52 31
4.7465849 0.045170955 -0.47767997 54 14
4.767818 0.044524044 -0.41233864 51 18
4.7780471 0.04377754 -0.3474206 53 22
4.787426 0.043856122 -0.28146967 51 26
4.8058853 0.043171912 -0.2157764 36 32
4.8184347 0.042433828 -0.14946641 49 40
4.8250546 0.042486981 -0.082761809 36 48
4.8357506 0.041728795 -0.015918046 71 56
4.8223333 0.18203689 -0.22504014 38 31
4.7467136 0.028602008 -0.47767997 71 14
4.7679443 0.027880985 -0.41233864 44 18
4.7731843 0.027074406 -0.34705526 46 22
4.7825589 0.027120223 -0.28117403 37 26
4.7960167 0.026348908 -0.21532451 32 32
4.8135557 0.025591416 -0.14931023 47 40
4.8201742 0.025621451 -0.08267542 31 48
4.8258667 0.024804993 -0.015884886 46 56
4.8179474 0.16503449 -0.22480547 32 31
4.8356013 0.16562939 -0.15847313 59 39
4.7418108 0.012024029 -0.47717559 29 14
4.75805 0.011221934 -0.41147056 32 18
4.7682633 0.010405757 -0.34668994 30 22
4.7776341 0.010418842 -0.28087837 26 26
4.7960792 0.0096075237 -0.21532451 23 32
4.8036213 0.0087783476 -0.14899787 43 40
4.8202343 0.0087957466 -0.08267542 23 48
4.830924 0.0079637859 -0.015901467 42 56
4.8135014 0.14806493 -0.22457081 29 31
4.8361502 0.14874898 -0.15847313 57 39
4.7418237 -0.0045287125 -0.47717559 29 14
4.7580605 -0.0053874906 -0.41147056 29 18
4.76827 -0.0062393141 -0.34668994 29 22
4.7776408 -0.0062589408 -0.28087837 28 26
4.7960835 -0.0071346434 -0.21532451 25 32
4.8036227 -0.0079901423 -0.14899787 41 40
4.8202357 -0.0080307359 -0.08267542 25 48
4.8209224 -0.0088738268 -0.015868302 38 56
4.8356762 -0.0089124525 0.051102269 56 64
4.8139896 0.13126175 -0.22457081 29 31
4.8266497 0.13159992 -0.15814333 49 39
4.7417793 -0.021080738 -0.47717559 30 14
4.7580123 -0.021996187 -0.41147056 30 18
4.768219 -0.022883646 -0.34668994 28 22
4.7775898 -0.022935983 -0.28087837 37 26
4.7910347 -0.023847286 -0.21509854 23 32
4.8035655 -0.024757866 -0.14899787 41 40
4.8151793 -0.024826784 -0.082589023 35 48
4.8208618 -0.025701931 -0.015868302 42 56
4.8356152 -0.025792057 0.051102269 47 64
4.8144178 0.11445699 -0.22457081 30 31
4.8320746 0.11486693 -0.15830822 47 39
4.8440433 0.10499436 -0.09150102 42 47
4.8154483 0.24555118 -0.30024597 42 25
4.7416763 -0.03763251 -0.47717559 31 14
4.7529259 -0.038560279 -0.41103649 36 18
4.7681103 -0.039527699 -0.34668994 39 22
4.7724895 -0.039567444 -0.2805827 47 26
4.7909217 -0.040570971 -0.21509854 25 32
4.7984519 -0.041478183 -0.14884168 45 40
4.815063 -0.041634742 -0.082589023 25 48
4.815743 -0.042481724 -0.015851721 43 56
4.8254976 -0.042575367 0.050995808 44 64
4.8197818 0.097749345 -0.22480547 29 31
4.8274503 0.097900607 -0.15814333 59 39
4.834383 0.087908603 -0.091310784 59 47
4.801322 0.22803542 -0.29930669 60 25
4.7365417 -0.054123037 -0.47667119 30 14
4.8199978 0.22891614 -0.23339944 57 30
4.7527623 -0.055150852 -0.41103649 57 18
4.7629566 -0.056108598 -0.34632462 51 22
4.7723217 -0.056226294 -0.2805827 48 26
4.790751 -0.057294164 -0.21509854 30 32
4.7932811 -0.05816311 -0.1486855 45 40
4.8098898 -0.058377631 -0.082502641 46 48
4.8155651 -0.059291545 -0.015851721 43 56
4.8203201 -0.059353787 0.050942577 42 64
4.8150997 0.080843508 -0.22457081 33 31
4.8227654 0.080967948 -0.15797842 51 39
4.8346605 0.071032919 -0.091310784 45 47
4.8120599 0.21170963 -0.29993287 46 25
4.7363243 -0.070656329 -0.47667119 54 14
4.8157783 0.211872 -0.23315606 56 30
4.7475605 -0.071661644 -0.41060248 57 18
4.7577457 -0.072654009 -0.34595928 52 22
4.7720966 -0.072884463 -0.2805827 49 26
4.7855282 -0.073935591 -0.21487263 46 32
4.7930484 -0.074894436 -0.1486855 47 40
4.8046579 -0.075084917 -0.082416251 37 48
4.8103304 -0.076017752 -0.015835142 45 56
4.8150845 -0.076096587 0.050889343 39 64
4.8103585 0.063971542 -0.22433615 38 31
4.8180223 0.064069189 -0.15781352 46 39
4.8298802 0.054103158 -0.091215678 41 47
4.8027973 0.19451058 -0.29930669 49 25
4.7360487 -0.087188751 -0.47667119 53 14
4.8164887 0.19506048 -0.23315606 46 30
4.7472816 -0.088233285 -0.41060248 48 18
4.7574635 -0.089261197 -0.34595928 40 22
4.7668228 -0.089444175 -0.28028703 43 26
4.7802472 -0.090541244 -0.21464667 38 32
4.7877617 -0.091525413 -0.14852934 47 40
4.7993684 -0.091756381 -0.082329854 33 48
4.8050361 -0.092708118 -0.01581856 43 56
4.8097906 -0.09280356 0.050836116 34 64
4.8055587 0.047133677 -0.2241015 42 31
4.7985878 -0.094254367 0.11725073 47 70
4.8182163 0.047250766 -0.15781352 46 39
4.8250408 0.037207626 -0.091120556 40 47
4.8408456 0.037320729 -0.024320859 54 55
4.7984605 0.17756166 -0.29899365 49 25
4.7357159 -0.10372011 -0.47667119 48 14
4.812149 0.1780636 -0.23291267 42 30
4.7419648 -0.10468998 -0.41016844 42 18
4.7521381 -0.10575244 -0.34559399 43 22
4.7614923 -0.10596798 -0.27999136 35 26
4.7749081 -0.10711093 -0.21442072 35 32
4.7824168 -0.10812038 -0.14837314 43 40
4.7940211 -0.10839182 -0.082243465 23 48
4.8046832 -0.10948025 -0.01581856 34 56
4.8044391 -0.1094745 0.050782885 17 64
4.8006992 0.03033009 -0.22386684 39 31
4.823215 -0.11160153 0.11786589 40 70
4.813355 0.030402983 -0.15764861 43 39
4.8201418 0.020346541 -0.091025442 25 47
4.7894034 0.16132763 -0.36512035 30 21
4.8309464 0.020386143 -0.024270244 49 55
4.7990508 0.16081081 -0.29899365 36 25
4.725379 -0.11998978 -0.47566232 25 14
4.8127413 0.16126499 -0.23291267 32 30
4.7415705 -0.12124188 -0.41016844 30 18
4.8255434 0.16084652 -0.16650738 57 38
4.7467551 -0.12220757 -0.34522867 25 22
4.756104 -0.12245564 -0.27969572 26 26
4.7695122 -0.12364444 -0.21419477 23 32
4.7720184 -0.12454485 -0.14806077 41 40
4.7936134 -0.12512541 -0.082243465 20 48
4.7992735 -0.12611581 -0.015801977 39 56
4.7940321 -0.12597397 0.050676417 17 64
4.7907867 0.013549671 -0.22339749 25 31
4.8178 -0.12830007 0.11774286 35 70
4.8084345 0.013589714 -0.15748371 42 39
4.8151851 0.0035201067 -0.09093032 25 47
4.7899375 0.14460851 -0.36512035 38 21
4.8309889 0.0035228673 -0.024270244 41 55
4.799583 0.14405802 -0.29899365 43 25
4.7249312 -0.1364837 -0.47566232 29 14
4.8082833 0.14431624 -0.23266928 28 30
4.7311602 -0.13749503 -0.40930033 25 18
4.8310695 0.1441486 -0.16668099 43 38
4.7363305 -0.13847673 -0.34449801 23 22
4.750658 -0.13890699 -0.27940005 27 26
4.7640591 -0.14014159 -0.21396883 23 32
4.7665586 -0.1410498 -0.14790459 36 40
4.7881508 -0.14170572 -0.082157083 23 48
4.7888088 -0.14256227 -0.015768817 29 56
4.7935624 -0.14270751 0.050676417 32 64
4.7908044 -0.0031740461 -0.22339749 25 31
4.8073301 -0.14480776 0.1174968 28 70
4.8034549 -0.0031895018 -0.1573188 37 39
4.8201671 -0.013305295 -0.091025442 25 47
4.7854295 0.12775625 -0.36473763 29 21
4.8259716 -0.013324544 -0.024244936 37 55
4.8000565 0.12730348 -0.29899365 30 25
4.7244258 -0.15297595 -0.47566232 29 14
4.825841 -0.014166387 0.042636085 73 63
4.8087578 0.12753133 -0.23266928 28 30
4.7306514 -0.15400901 -0.40930033 29 18
4.8215528 0.12702429 -0.16633375 36 38
4.7358184 -0.15500876 -0.34449801 28 22
4.7501445 -0.15548903 -0.27940005 36 26
4.7635407 -0.15677042 -0.21396883 25 32
4.7660375 -0.15768732 -0.14790459 37 40
4.78263 -0.15824935 -0.082070686 37 48
4.7882819 -0.15927745 -0.015768817 39 56
4.7880387 -0.15926917 0.05062319 25 64
4.7907643 -0.019897057 -0.22339749 28 31
4.8034148 -0.019956671 -0.1573188 42 39
4.8435488 0.12167505 -0.09989439 43 46
4.7322435 -0.020447228 -0.56414986 95 10
4.8179126 0.26230988 -0.241758 67 29
4.8100934 -0.030062685 -0.090835214 29 47
4.7858462 0.11105121 -0.36473763 38 21
4.8208952 -0.030136211 -0.024219628 40 55
4.8004718 0.11054739 -0.29899365 32 25
4.7238631 -0.16946633 -0.47566232 36 14
4.8257618 -0.031011626 0.042636085 53 63
4.8091736 0.11074486 -0.23266928 25 30
4.7300849 -0.17052113 -0.40930033 35 18
4.8219671 0.11019315 -0.16633375 37 38
4.7352481 -0.17153893 -0.34449801 36 22
4.744585 -0.17188455 -0.27910438 47 26
4.7629642 -0.17339732 -0.21396883 28 32
4.7654581 -0.17432295 -0.14790459 43 40
4.7754083 0.10664307 -0.43058434 67 17
4.7820487 -0.17494288 -0.082070686 30 48
4.7827001 -0.17580312 -0.015752235 43 56
4.7874537 -0.17598158 0.05062319 33 64
4.7856722 -0.036578856 -0.22316286 30 31
4.7983189 -0.036682598 -0.15715389 58 39
4.8489423 0.10487361 -0.099998236 52 46
4.7519999 -0.037132069 -0.56653529 92 10
4.818799 0.24549066 -0.241758 59 29
4.8099589 -0.046852861 -0.090835214 65 47
4.7862043 0.094344817 -0.36473763 37 21
4.8157616 -0.046912611 -0.024194319 48 55
4.800828 0.093789943 -0.29899365 38 25
4.7232428 -0.18595468 -0.47566232 30 14
4.8206244 -0.047804132 0.042591579 53 63
4.8045378 0.09386117 -0.23242593 30 30
4.7294607 -0.18703118 -0.40930033 53 18
4.8223219 0.093360677 -0.16633375 53 38
4.7296381 -0.18786512 -0.34413269 47 22
4.7389684 -0.18824312 -0.27880871 48 26
4.7573395 -0.18981908 -0.2137429 32 32
4.7648211 -0.19095643 -0.14790459 43 40
4.7707739 0.089881025 -0.43013209 63 17
4.7764139 -0.19143017 -0.081984296 35 48
4.7770615 -0.19229178 -0.015735652 43 56
4.8017964 -0.19330686 0.050782885 40 64
4.7855153 -0.053283751 -0.22316286 36 31
4.7931643 -0.053373199 -0.15698899 57 39
4.8342838 0.087680042 -0.099686705 40 46
4.7220573 -0.053365916 -0.56295717 94 10
4.8146381 0.22843231 -0.24150589 63 29
4.8047676 -0.063573539 -0.0907401 39 47
4.7815204 0.077558093 -0.36435488 36 21
4.8105693 -0.063653536 -0.024169013 49 55
4.7961369 0.076952964 -0.29868054 47 25
4.7175961 -0.20222378 -0.47515795 53 14
4.8154292 -0.064561158 0.042547073 41 63
4.8048363 0.077089623 -0.23242593 36 30
4.7287788 -0.20353894 -0.40930033 56 18
4.8176217 0.076449446 -0.16616012 57 38
4.7289534 -0.20437349 -0.34413269 50 22
4.7332959 -0.20456462 -0.27851307 49 26
4.7516575 -0.20620361 -0.21351695 38 32
4.7591329 -0.20736615 -0.14774841 45 40
4.7710581 0.073227368 -0.43013209 55 17
4.7707219 -0.20788024 -0.081897907 43 48
4.7763615 -0.20896566 -0.015735652 43 56
4.7761192 -0.20895487 0.050516725 43 64
4.7853003 -0.06998799 -0.22316286 46 31
4.7929487 -0.070104137 -0.15698899 53 39
4.8345604 0.0708047 -0.099686705 42 46
4.7466612 -0.070229873 -0.56593889 88 10
4.8154063 0.2116247 -0.24150589 63 29
4.8045163 -0.080344923 -0.0907401 46 47
4.7767773 0.060805228 -0.36397219 42 21
4.8103175 -0.08044517 -0.024169013 45 55
4.7913861 0.060149886 -0.29836747 58 25
4.7168608 -0.21869002 -0.47515795 39 14
4.8051763 -0.081195228 0.042458065 40 63
4.8000817 0.060256131 -0.23218255 50 30
4.7230649 -0.21980873 -0.40886635 47 18
4.8178596 0.059632339 -0.16616012 51 38
4.7282114 -0.22087938 -0.34413269 42 22
4.7325535 -0.22108565 -0.27851307 41 26
4.7459192 -0.22255084 -0.213291 40 32
4.7533884 -0.22373846 -0.14759223 45 40
4.7663054 0.056515459 -0.42967978 53 17
4.7649736 -0.22429292 -0.08181151 38 48
4.7706084 -0.22539711 -0.015719071 42 56
4.7953367 -0.22658488 0.050729651 39 64
4.7800326 -0.086598106 -0.2229282 43 31
4.7876787 -0.086740918 -0.1568241 49 39
4.8347783 0.053928506 -0.099686705 42 46
4.7265334 -0.086424105 -0.56355351 40 10
4.8357024 0.053938504 -0.032672983 43 54
4.8161154 0.19481447 -0.24150589 55 29
4.8240423 0.19513424 -0.1740346 42 37
4.7992086 -0.097011507 -0.090644978 36 47
4.7769604 0.044130795 -0.36397219 53 21
4.8050089 -0.097131982 -0.024143705 38 55
4.7915668 0.043424461 -0.29836747 53 25
4.7111006 -0.23490192 -0.47465351 33 14
4.8048635 -0.09796793 0.042458065 30 63
4.7902751 0.043413188 -0.23169577 45 30
4.7172937 -0.23604105 -0.40843228 41 18
4.8080449 0.042729039 -0.16581286 49 38
4.7174511 -0.23687449 -0.34340206 29 22
4.726768 -0.23734975 -0.27821741 30 26
4.7351375 -0.2386052 -0.21283913 23 32
4.7401161 0.040493347 -0.49359927 12 13
4.7525783 -0.24032953 -0.14759223 42 40
4.7614937 0.039837625 -0.42922747 50 17
4.7591696 -0.24066804 -0.081725128 34 48
4.7647996 -0.24179097 -0.01570249 39 56
4.7747083 -0.10317231 -0.22269352 41 31
4.782351 -0.10334174 -0.15665919 46 39
4.8249393 0.036978364 -0.099479027 37 46
4.7262025 -0.10292225 -0.56355351 45 10
4.8308616 0.037021779 -0.032638952 42 54
4.8167663 0.17800193 -0.24150589 41 29
4.8246942 0.178294 -0.1740346 58 37
4.7888455 -0.11352074 -0.090454757 23 47
4.7770853 0.027455822 -0.36397219 39 21
4.7996416 -0.11378271 -0.024118396 37 55
4.7817092 0.026646249 -0.29774132 36 25
4.7052846 -0.25107628 -0.47414911 37 14
4.804492 -0.11473943 0.042458065 28 63
4.7903972 0.026691742 -0.23169577 30 30
4.7114673 -0.25223583 -0.40799823 32 18
4.8081651 0.025945568 -0.16581286 41 38
4.7116165 -0.25306863 -0.34303671 23 22
4.7209272 -0.25357613 -0.27792174 29 26
4.7342753 -0.25513247 -0.21283913 23 32
4.7402287 0.023947006 -0.49359927 34 13
4.7417302 -0.25637013 -0.14727986 32 40
4.7616043 0.023216667 -0.42922747 51 17
4.7583008 -0.25727916 -0.081725128 20 48
4.753942 -0.25787222 -0.015669327 31 56
4.7693257 -0.11971038 -0.22245885 29 31
4.7769656 -0.11990643 -0.15649427 41 39
4.8200397 0.020116761 -0.099375188 36 46
4.7258143 -0.11941915 -0.56355351 44 10
4.8309612 0.020158697 -0.032638952 40 54
4.812367 0.16102076 -0.24125379 23 29
4.8202925 0.16128506 -0.17385313 54 37
4.7884197 -0.13023624 -0.090454757 25 47
4.7671809 0.010761371 -0.36320671 31 21
4.7942166 -0.13039716 -0.024093088 32 55
4.776783 0.0099460976 -0.29742822 43 25
4.7043796 -0.26749924 -0.47414911 28 14
4.7890692 -0.13109075 0.042324547 23 63
4.7854681 0.0099612568 -0.23145242 20 30
4.7105584 -0.26868036 -0.40799823 28 18
4.7982316 0.0091460831 -0.16546561 42 38
4.7107038 -0.26951367 -0.34303671 25 22
4.7150302 -0.26976463 -0.27762607 30 26
4.733356 -0.2716566 -0.21283913 20 32
4.740283 0.0074003749 -0.49359927 33 13
4.7358174 -0.27262914 -0.14712368 29 40
4.7566767 0.006590208 -0.42877516 33 17
4.7424002 -0.27301332 -0.081465952 32 48
4.7580047 -0.27475721 -0.01568591 25 56
4.7638865 -0.13621217 -0.22222419 25 31
4.7665272 -0.13628915 -0.15616447 32 39
4.8150821 0.0032898141 -0.099271342 20 46
4.7204065 -0.13576905 -0.56295717 40 10
4.8260021 0.0032936274 -0.032604914 25 54
4.8128991 0.14422147 -0.24125379 29 29
4.8208256 0.1444581 -0.17385313 25 37
4.7879362 -0.14695016 -0.090454757 28 47
4.7671895 -0.0058799256 -0.36320671 30 21
4.7887354 -0.14697513 -0.024067782 28 55
4.7767887 -0.0067287125 -0.29742822 32 25
4.698452 -0.28361526 -0.47364467 29 14
4.7885823 -0.14780691 0.042324547 30 63
4.7854738 -0.0067438707 -0.23145242 23 30
4.7095914 -0.28512165 -0.40799823 30 18
4.7982345 -0.0076035946 -0.16546561 31 38
4.7047577 -0.28564933 -0.34267142 29 22
4.7090783 -0.28591508 -0.27733043 33 26
4.7273936 -0.2878699 -0.21261318 23 32
4.7402802 -0.009147007 -0.49359927 30 13
4.7348371 -0.28915858 -0.14712368 35 40
4.7566705 -0.010014394 -0.42877516 37 17
4.7464089 -0.28987443 -0.081552342 28 48
4.7470355 -0.29074487 -0.015652746 29 56
4.763382 -0.15284041 -0.22222419 29 31
4.7660222 -0.15292661 -0.15616447 37 39
4.8200626 -0.013534353 -0.099375188 23 46
4.7199039 -0.15224552 -0.56295717 33 10
4.8209839 -0.013537248 -0.03257088 30 54
4.8259726 -0.01355292 0.034276228 43 62
4.813374 0.12742044 -0.24125379 36 29
4.821301 0.1276294 -0.17385313 44 37
4.7823982 -0.16348869 -0.090359636 36 47
4.7671399 -0.022520486 -0.36320671 25 21
4.7881932 -0.16369005 -0.024067782 38 55
4.7767363 -0.023402773 -0.29742822 34 25
4.6924696 -0.29969326 -0.4731403 29 14
4.7830405 -0.16434678 0.042280041 33 63
4.780427 -0.023422098 -0.23120902 25 30
4.7035966 -0.30123711 -0.40756419 33 18
4.7931819 -0.024325477 -0.16529198 35 38
4.703732 -0.30207026 -0.34267142 29 22
4.8435087 0.11721821 -0.10828746 60 45
4.7080517 -0.30235109 -0.27733043 43 26
4.7313442 -0.30469477 -0.21283913 30 32
4.7402196 -0.025693616 -0.49359927 29 13
4.7288122 -0.3053585 -0.1469675 43 40
4.7566071 -0.026618211 -0.42877516 37 17
4.745368 -0.30644074 -0.081552342 32 48
4.7410021 -0.30698633 -0.015636165 37 56
4.7628193 -0.16946678 -0.22222419 29 31
4.7604661 -0.16938171 -0.15599957 42 39
4.8099895 -0.030293126 -0.099167511 30 46
4.7143831 -0.16853996 -0.56236076 31 10
4.8209076 -0.030365542 -0.03257088 38 54
4.8258963 -0.030398626 0.034276228 40 62
4.8137894 0.11061785 -0.24125379 29 29
4.8217168 0.11079914 -0.17385313 44 37
4.8182092 0.24860246 -0.25011584 9 28
4.7768025 -0.17999032 -0.090264522 49 47
4.7670321 -0.039160773 -0.36320671 37 21
4.7825961 -0.18021187 -0.024042474 53 55
4.7766252 -0.040076554 -0.29742822 37 25
4.6913953 -0.31607118 -0.4731403 30 14
4.7824378 -0.1810417 0.042280041 40 63
4.7853103 -0.040152345 -0.23145242 32 30
4.7025161 -0.31765392 -0.40756419 42 18
4.7930679 -0.041056659 -0.16529198 50 38
4.7026486 -0.3184875 -0.34267142 30 22
4.8388906 0.10020755 -0.10817489 59 45
4.7019873 -0.31844217 -0.27703476 48 26
4.7252688 -0.32086608 -0.21261318 50 32
4.7401009 -0.042239912 -0.49359927 30 13
4.7277169 -0.32186326 -0.1469675 54 40
4.7564845 -0.043221705 -0.42877516 36 17
4.7392817 -0.32265976 -0.081465952 40 48
4.7572088 -0.18589327 -0.22198954 38 31
4.7648387 -0.1861957 -0.15616447 57 39
4.809854 -0.047082938 -0.099167511 36 46
4.7137656 -0.18499517 -0.56236076 42 10
4.8157725 -0.047142856 -0.032536846 43 54
4.8207607 -0.047193348 0.034240447 43 62
4.8091536 0.093717188 -0.2410017 31 29
4.8170786 0.093870737 -0.17367165 46 37
4.8190475 0.23178226 -0.25011584 57 28
4.7711506 -0.1964549 -0.0901694 45 47
4.7618814 -0.055740546 -0.36282399 35 21
4.7769423 -0.19669664 -0.024017164 49 55
4.7714667 -0.056688871 -0.29711512 53 25
4.6902633 -0.33244526 -0.4731403 53 14
4.7817769 -0.19773443 0.042280041 53 63
4.7801471 -0.056794927 -0.23120902 38 30
4.6964111 -0.33370984 -0.40713018 51 18
4.7928953 -0.057787336 -0.16529198 54 38
4.6965346 -0.3345426 -0.34230608 49 22
4.8342128 0.08323057 -0.10806233 62 45
4.7008471 -0.33485326 -0.27703476 49 26
4.7388897 -0.058772516 -0.58997607 8 9
4.7141562 -0.3366389 -0.21216127 46 32
4.7399244 -0.058785696 -0.49359927 84 13
4.7165952 -0.33764252 -0.14665513 43 40
4.7513256 -0.059760362 -0.42832285 44 17
4.7381263 -0.33920097 -0.081465952 48 48
4.7515407 -0.20228265 -0.22175488 57 31
4.7591672 -0.20261164 -0.15599957 58 39
4.8096604 -0.063872173 -0.099167511 48 46
4.718051 -0.20166299 -0.56295717 50 10
4.8105798 -0.06388469 -0.032502815 43 54
4.815567 -0.063952588 0.034204669 43 62
4.8094511 0.076929532 -0.2410017 38 29
4.8196106 -0.064848974 0.10104443 74 69
4.8173766 0.077055424 -0.17367165 48 37
4.7908764 0.21534054 -0.31529647 61 24
4.8148389 0.21473619 -0.24985503 53 28
4.7654414 -0.21288222 -0.090074286 49 47
4.7566733 -0.072284833 -0.36244124 46 21
4.7712321 -0.21314415 -0.023991857 46 55
4.7712398 -0.073344059 -0.29711512 56 25
4.684113 -0.34844232 -0.47263587 41 14
4.7710676 -0.21397112 0.042191029 50 63
4.7749262 -0.073401973 -0.23096564 46 30
4.6902509 -0.349727 -0.40669611 51 18
4.7876682 -0.074437954 -0.16511837 49 38
4.6903653 -0.35055885 -0.34194076 45 22
4.8294754 0.066287458 -0.10794976 43 45
4.6996493 -0.35126022 -0.27703476 41 26
4.738656 -0.075313963 -0.58997607 58 9
4.8405256 0.065592915 -0.041093074 47 53
4.7129521 -0.35309234 -0.21216127 41 32
4.7396903 -0.075330757 -0.49359927 43 13
4.7104049 -0.35372627 -0.14649896 43 40
4.7461095 -0.076263539 -0.4278706 48 17
4.7319293 -0.35535979 -0.08137957 41 48
4.7458167 -0.21863472 -0.22152022 43 31
4.7534389 -0.21899018 -0.15583466 50 39
4.80441 -0.080575131 -0.099063672 43 46
4.7074013 -0.21766661 -0.56176448 53 10
4.8053284 -0.080590837 -0.032468777 43 54
4.8103156 -0.080676153 0.034168892 43 62
4.8046975 0.060079068 -0.24074963 43 29
4.8043609 -0.081413053 0.10072768 38 69
4.8126202 0.060177248 -0.17349017 47 37
4.7915993 0.19861592 -0.31529647 64 24
4.8155594 0.19792798 -0.24985503 57 28
4.7646694 -0.22951543 -0.090074286 41 47
4.7563915 -0.088888288 -0.36244124 49 21
4.7654648 -0.22955419 -0.023966549 45 55
4.765965 -0.089902535 -0.29680204 46 25
4.6779094 -0.36440051 -0.47213143 39 14
4.7752857 -0.23086821 0.042235535 43 63
4.7696471 -0.089973241 -0.23072226 47 30
4.6890011 -0.36609688 -0.40669611 43 18
4.782383 -0.091052771 -0.16494474 48 38
4.6891131 -0.36692917 -0.34194076 36 22
4.8296776 0.04942904 -0.10794976 55 45
4.6934195 -0.36726961 -0.27673909 45 26
4.7334042 -0.091756664 -0.58935374 51 9
4.8357258 0.048646189 -0.041050311 55 53
4.7017326 -0.36875242 -0.2117094 31 32
4.734427 -0.091776848 -0.49307746 46 13
4.7041597 -0.36977091 -0.14634277 41 40
4.7458148 -0.092830084 -0.4278706 44 17
4.7356429 -0.37227082 -0.081465952 38 48
4.740036 -0.23494929 -0.22128555 36 31
4.7476544 -0.23533122 -0.15566975 46 39
4.7991009 -0.097242214 -0.098959826 39 46
4.7066121 -0.23409717 -0.56176448 56 10
4.8050175 -0.097364075 -0.032468777 41 54
4.805006 -0.097363837 0.03413311 34 62
4.7998843 0.043262731 -0.24049753 54 29
4.8040476 -0.098182909 0.10072768 41 69
4.8128009 0.043377709 -0.17349017 45 37
4.7922635 0.18188892 -0.31529647 47 24
4.8162208 0.18111734 -0.24985503 47 28
4.8342509 0.18095243 -0.18361607 54 36
4.7588472 -0.24588509 -0.089979172 28 47
4.7510686 -0.1053784 -0.36205855 41 21
4.7596416 -0.24592657 -0.023941241 39 55
4.760633 -0.1064251 -0.29648894 38 25
4.6716509 -0.38031963 -0.47162703 23 14
4.7643108 -0.10650856 -0.23047888 37 30
4.6827302 -0.38205329 -0.40626207 34 18
4.7770405 -0.10763162 -0.16477111 42 38
4.6828341 -0.38288468 -0.34157544 23 22
4.8198237 0.032503713 -0.10772463 37 45
4.6871347 -0.38323972 -0.27644342 41 26
4.7280955 -0.10816363 -0.58873147 49 9
4.8308663 0.031733774 -0.041007556 51 53
4.7004166 -0.38516235 -0.2117094 35 32
4.7340779 -0.10830252 -0.49307746 33 13
4.7028403 -0.38618922 -0.14634277 36 40
4.7454615 -0.1093955 -0.4278706 38 17
4.7342005 -0.25122622 -0.2210509 23 31
4.7418141 -0.25163457 -0.15550485 37 39
4.7887378 -0.11375283 -0.098752148 20 46
4.7008095 -0.25025815 -0.56116807 51 10
4.7996497 -0.1140157 -0.032434743 32 54
4.804637 -0.11413584 0.03413311 20 62
4.8000064 0.026507741 -0.24049753 43 29
4.8086734 -0.11507284 0.10083327 20 69
4.8079267 0.026550598 -0.1733087 43 37
4.7928686 0.1651597 -0.31529647 50 24
4.8118334 0.16413368 -0.24959421 44 28
4.8348532 0.16407666 -0.18361607 53 36
4.7529688 -0.26221687 -0.089884058 25 47
4.7506719 -0.1219621 -0.36205855 37 21
4.7537618 -0.26226109 -0.023915933 25 55
4.7552443 -0.12291154 -0.2961759 28 25
4.6653385 -0.39619955 -0.47112265 25 14
4.7639098 -0.12313846 -0.23047888 25 30
4.6764054 -0.39797041 -0.40582803 26 18
4.766645 -0.12404257 -0.16442385 36 38
4.6765013 -0.39880082 -0.34121013 23 22
4.8149085 0.015663486 -0.10761207 25 45
4.6807952 -0.39917046 -0.27614778 31 26
4.7276893 -0.1246671 -0.58873147 56 9
4.8259478 0.014855874 -0.040964793 43 53
4.694067 -0.40113825 -0.21148345 23 32
4.7286997 -0.12469409 -0.49255568 23 13
4.6865268 -0.40131184 -0.14587423 20 40
4.7400727 -0.12582576 -0.42741829 33 17
4.7332945 -0.26775014 -0.2210509 23 31
4.7359176 -0.26790002 -0.15533996 28 39
4.7833142 -0.13033012 -0.09864831 17 46
4.6899939 -0.2660974 -0.55997539 37 10
4.7942247 -0.13063104 -0.032400709 17 54
4.7942128 -0.13063072 0.034061551 20 62
4.7950759 0.0097428458 -0.24024542 25 29
4.783257 -0.13116401 0.10030534 17 69
4.7979965 0.0097484533 -0.17294574 41 37
4.7935343 0.14843214 -0.38211983 36 20
4.793416 0.14842845 -0.31529647 33 24
4.8123765 0.14733626 -0.24959421 39 28
4.8254085 0.14689371 -0.18323395 41 36
4.742044 -0.27821502 -0.089693822 28 47
4.7402511 -0.13825023 -0.36129308 23 21
4.7278619 -0.27737492 -0.023789395 29 55
4.7497983 -0.13936165 -0.29586279 25 25
4.6639276 -0.41248217 -0.47112265 25 14
4.7634516 -0.13976686 -0.23047888 20 30
4.6700263 -0.41384804 -0.40539402 31 18
4.7661829 -0.14068051 -0.16442385 25 38
4.6750803 -0.41512245 -0.34121013 17 22
4.8149338 -0.0011444476 -0.10761207 25 45
4.6793733 -0.41550708 -0.27614778 30 26
4.7272253 -0.14116906 -0.58873147 25 9
4.8209705 -0.0019879728 -0.040922031 39 53
4.6926379 -0.41752115 -0.21148345 23 32
4.7282357 -0.14119957 -0.49255568 20 13
4.8310752 -0.0028364458 0.02594332 54 61
4.6850977 -0.41766843 -0.14587423 28 40
4.7346272 -0.14221974 -0.42696598 31 17
4.7323313 -0.28427079 -0.2210509 28 31
4.7299657 -0.28412735 -0.15517505 33 39
4.7828302 -0.14702621 -0.09864831 23 46
4.6890368 -0.28246692 -0.55997539 37 10
4.7887421 -0.14720994 -0.032366678 25 54
4.7887301 -0.14720957 0.034025777 34 62
4.7900867 -0.006987975 -0.23999332 34 29
4.7877665 -0.14801604 0.10041093 25 69
4.7930045 -0.006992558 -0.17276427 29 37
4.7940235 0.13169868 -0.38211983 14 20
4.7939053 0.13169542 -0.31529647 32 24
4.8128619 0.13053703 -0.24959421 23 28
4.8258915 0.13004901 -0.18323395 42 36
4.7410436 -0.2947661 -0.089693822 32 47
4.7397394 -0.15479596 -0.36129308 23 21
4.7418346 -0.29481575 -0.023865316 33 55
4.7492828 -0.15594068 -0.29586279 30 25
4.6575055 -0.42830029 -0.47061822 25 14
4.7579436 -0.15622799 -0.23023552 28 30
4.6685534 -0.43014693 -0.40539402 32 18
4.7606688 -0.15715021 -0.16425024 30 38
4.6736026 -0.43143898 -0.34121013 30 22
4.8149004 -0.017951697 -0.10761207 25 45
4.6729245 -0.43137586 -0.27585211 38 26
4.7167873 -0.15733512 -0.58748674 29 9
4.8159342 -0.018796217 -0.040879268 32 53
4.6911526 -0.43389896 -0.21148345 30 32
4.7277145 -0.15770333 -0.49255568 23 13
4.8310361 -0.019700028 0.02594332 57 61
4.6786351 -0.4335548 -0.14571804 36 40
4.729126 -0.15857723 -0.42651367 31 17
4.726325 -0.30046827 -0.22081624 34 31
4.7289448 -0.30063629 -0.15517505 43 39
4.7822881 -0.1637205 -0.09864831 40 46
4.6880221 -0.29883301 -0.55997539 29 10
4.7881989 -0.16392486 -0.032366678 36 54
4.788187 -0.16392444 0.034025777 33 62
4.7900329 -0.023708455 -0.23999332 28 29
4.7872205 -0.16472757 0.10041093 34 69
4.7929506 -0.023723224 -0.17276427 33 37
4.7894716 0.11484358 -0.38171968 29 20
4.7943358 0.11496076 -0.31529647 29 24
4.8132882 0.11373621 -0.24959421 23 28
4.8313112 0.11332042 -0.18342499 25 36
4.8434181 0.11275993 -0.1166802 53 44
4.7449741 -0.31164411 -0.089788936 39 47
4.7391701 -0.17133979 -0.36129308 34 21
4.7158322 -0.3097136 -0.023738779 39 55
4.7437224 -0.17233494 -0.29554972 37 25
4.6559825 -0.44455543 -0.47061822 28 14
4.7523785 -0.17265235 -0.22999214 33 30
4.6620655 -0.44596234 -0.40495995 41 18
4.7600918 -0.1737671 -0.16425024 41 38
4.6621418 -0.44679093 -0.34047946 32 22
4.8098106 -0.03472209 -0.10749951 34 45
4.6664224 -0.44720462 -0.27555645 47 26
4.7162089 -0.17379881 -0.58748674 31 9
4.8108401 -0.035569333 -0.040836513 38 53
4.6846371 -0.44979012 -0.2112575 47 32
4.7221651 -0.17402035 -0.4920339 30 13
4.8209376 -0.036486574 0.025889214 47 61
4.7285433 -0.17508399 -0.42651367 35 17
4.7252474 -0.31696439 -0.22081624 42 31
4.7278666 -0.31714153 -0.15517505 56 39
4.7766919 -0.18022265 -0.098544464 42 46
4.6869502 -0.31519544 -0.55997539 37 10
4.7826014 -0.18044759 -0.03233264 44 54
4.7825899 -0.18044716 0.033989996 43 62
4.7849283 -0.040385943 -0.23974125 30 29
4.7928391 -0.040453598 -0.17276427 49 37
4.7848601 0.09802185 -0.38131955 36 20
4.7947078 0.098224699 -0.31529647 32 24
4.8136559 0.096934013 -0.24959421 31 28
4.8216867 0.096254736 -0.18304287 33 36
4.8437824 0.095852569 -0.1166802 42 44
4.7388701 -0.3278574 -0.089693822 55 47
4.7335615 -0.18768235 -0.36091036 35 21
4.7381058 -0.18869232 -0.29523662 51 25
4.6544018 -0.46080512 -0.47061822 34 14
4.7517467 -0.1892402 -0.22999214 42 30
4.66048 -0.46223328 -0.40495995 46 18
4.7544622 -0.19018044 -0.1640766 52 38
4.6605535 -0.46306211 -0.34047946 48 22
4.8046618 -0.051457163 -0.10738694 53 45
4.6648326 -0.46349075 -0.27555645 44 26
4.7155733 -0.19026043 -0.58748674 35 9
4.8056865 -0.052307103 -0.04079375 54 53
4.6681285 -0.46464378 -0.21057968 51 32
4.7215285 -0.19050275 -0.4920339 34 13
4.8207812 -0.053314567 0.025889214 42 61
4.7328792 -0.19179194 -0.42696598 43 17
4.719131 -0.33310217 -0.22058156 58 31
4.7217464 -0.33328828 -0.15501013 58 39
4.7710395 -0.19668774 -0.098440625 45 46
4.685822 -0.33155403 -0.55997539 57 10
4.7769465 -0.19693325 -0.032298606 42 54
4.7869263 -0.19734804 0.034025777 43 62
4.7847581 -0.057088211 -0.23974125 38 29
4.7876725 -0.057123315 -0.17258281 56 37
4.7644415 0.081796139 -0.44618979 43 16
4.7851729 0.081318974 -0.38131955 38 20
4.7950215 0.081487447 -0.31529647 39 24
4.8089724 0.080046967 -0.2493334 38 28
4.816998 0.079340495 -0.18285181 41 36
4.8340917 0.078780003 -0.11643761 47 44
4.7277255 -0.34366667 -0.089503594 54 47
4.7328777 -0.2042044 -0.36091036 52 21
4.7374182 -0.20523027 -0.29523662 54 25
4.6478171 -0.47653785 -0.47011378 49 14
4.7410784 -0.20539007 -0.22950538 44 30
4.6538839 -0.47798571 -0.40452591 49 18
4.7487774 -0.20655659 -0.16390297 53 38
4.6539488 -0.47881332 -0.34011415 45 22
4.8044529 -0.068228245 -0.10738694 56 45
4.6631866 -0.47977123 -0.27555645 43 26
4.704968 -0.20628169 -0.58624208 43 9
4.8054752 -0.069081761 -0.04079375 53 53
4.676415 -0.48196784 -0.21103157 43 32
4.7158675 -0.20676328 -0.49151215 50 13
4.8155661 -0.070068598 0.025862161 42 61
4.7272058 -0.20809092 -0.42651367 56 17
4.7129583 -0.34920105 -0.2203469 44 31
4.7155709 -0.34939611 -0.15484522 58 39
4.7703238 -0.21334057 -0.098440625 45 46
