# .PCD v0.7 - Point Cloud Data file format
VERSION 0.7
FIELDS x y z intensity ring
SIZE 4 4 4 4 2
TYPE F F F F U
COUNT 1 1 1 1 1
WIDTH 1211
HEIGHT 1
VIEWPOINT 0 0 0 1 0 0 0
POINTS 1211
DATA ascii
4.5715938 0.013009124 -0.51677334 39 11
4.6066246 0.01072548 -0.1987616 37 33
4.6139522 0.010748501 -0.13507302 60 41
4.5627098 -0.14606927 -0.31590459 36 23
4.4962511 -0.40972939 -0.48575604 42 12
4.5766301 -0.14730634 -0.25319555 41 27
4.4826694 -0.40928224 -0.4212971 49 16
4.5796957 -0.14820333 -0.18974142 24 34
4.4880223 -0.41056016 -0.35891256 47 20
4.5819006 -0.14827338 -0.12625027 43 42
4.620379 -0.015037077 -0.071218558 37 49
4.6259236 -0.015858008 -0.007210596 44 57
4.5569735 -0.14986983 -0.44272545 39 15
4.5577044 -0.15068977 -0.37910843 43 19
4.5716114 -0.0029487947 -0.51677334 42 11
4.6066337 -0.0053553469 -0.1987616 40 33
4.608963 -0.0053561605 -0.13492556 59 41
4.5621719 -0.1619952 -0.31590459 35 23
4.5710993 -0.16310576 -0.25291735 29 27
4.4762578 -0.42445785 -0.42082742 51 16
4.5691657 -0.16383637 -0.18932442 20 34
4.4865618 -0.42622378 -0.35891256 43 20
4.5813551 -0.16426629 -0.12625027 31 42
4.6202989 -0.031165119 -0.071218558 22 49
4.6308398 -0.032035939 -0.0072184508 43 57
4.5464759 -0.16541968 -0.44175133 35 15
4.5521717 -0.1664191 -0.3786909 34 19
4.5666051 -0.018890839 -0.51620728 54 11
4.6015916 -0.021416286 -0.19854437 30 33
4.6089163 -0.021444412 -0.13492556 43 41
4.5565944 -0.1777277 -0.31555665 32 23
4.5655141 -0.17886838 -0.25263911 23 27
4.4747491 -0.44008031 -0.42082742 50 16
4.5685658 -0.17978474 -0.18932442 21 34
4.5757599 -0.18006362 -0.12611154 97 42
4.6101632 -0.047198545 -0.071063228 21 49
4.6207008 -0.048104402 -0.0072027417 23 57
4.5408983 -0.18109345 -0.44126427 35 15
4.5465841 -0.18211165 -0.37827337 37 19
4.5665112 -0.034831151 -0.51620728 37 11
4.6014891 -0.037478708 -0.19854437 27 33
4.6038156 -0.037495762 -0.1347781 35 41
4.5509624 -0.19342321 -0.31520873 23 23
4.5598736 -0.19459398 -0.25236085 24 27
4.4682326 -0.45519352 -0.42035773 43 16
4.5629191 -0.19551997 -0.18911591 24 34
4.6099706 -0.06329073 -0.071063228 26 49
4.5402384 -0.19694304 -0.44126427 29 15
4.5459213 -0.19798107 -0.37827337 22 19
4.5613947 -0.050719883 -0.51564127 28 11
4.5963354 -0.053486627 -0.19832715 23 33
4.6036568 -0.053565856 -0.1347781 35 41
4.5452776 -0.20908161 -0.31486085 35 23
4.5541792 -0.21028239 -0.25208262 34 27
4.5572186 -0.21121797 -0.1889074 33 34
4.6097217 -0.079382151 -0.071063228 29 49
4.5345531 -0.21256019 -0.44077727 35 15
4.540225 -0.21361688 -0.37785587 27 19
4.5661569 -0.066710308 -0.51620728 27 11
4.5961208 -0.069530502 -0.19832715 27 33
4.5984449 -0.069563776 -0.13463065 50 41
4.5445199 -0.22494632 -0.31486085 36 23
4.5534177 -0.22617815 -0.25208262 40 27
4.5714226 -0.2278617 -0.18953294 35 34
4.609416 -0.095472589 -0.071063228 34 49
4.5387535 -0.22863483 -0.44126427 37 15
4.5394516 -0.22946392 -0.37785587 35 19
4.5609293 -0.082562931 -0.51564127 29 11
4.5908556 -0.085484609 -0.19810992 34 33
4.5931773 -0.085525937 -0.13448319 58 41
4.5387254 -0.24054722 -0.31451294 43 23
4.5476151 -0.24180903 -0.25180441 49 27
4.5456557 -0.24250157 -0.18849039 89 34
4.5990586 -0.11132805 -0.070907898 45 49
4.532959 -0.24421191 -0.44077727 41 15
4.533648 -0.24504219 -0.37743834 40 19
4.5606132 -0.098483041 -0.51564127 31 11
4.585535 -0.10140281 -0.1978927 43 33
4.5928502 -0.1015586 -0.13448319 53 41
4.5328784 -0.25611046 -0.314165 48 23
4.5417595 -0.25740218 -0.25152615 47 27
4.5647326 -0.25948983 -0.18932442 42 34
4.6036396 -0.12751544 -0.070985563 88 49
4.5271101 -0.25975129 -0.44029021 45 15
4.5327649 -0.26086608 -0.37743834 44 19
4.555275 -0.11428143 -0.51507521 37 11
4.5851531 -0.11740869 -0.1978927 38 33
4.587472 -0.11746617 -0.13433573 52 41
4.5319567 -0.27193159 -0.314165 35 23
4.5358496 -0.27295732 -0.25124791 45 27
4.5212088 -0.27525279 -0.43980315 41 15
4.5268531 -0.27638605 -0.37702081 45 19
4.5548482 -0.13018163 -0.51507521 41 11
4.5747285 -0.13313071 -0.19745825 41 33
4.5820374 -0.13333742 -0.13418826 50 41
4.5260019 -0.28743622 -0.31381708 33 23
4.5298867 -0.28847438 -0.25096968 97 27
4.5202208 -0.29103306 -0.43980315 36 15
4.5208883 -0.29186797 -0.37660328 37 19
4.5494008 -0.14592505 -0.51450926 37 11
4.5742359 -0.14909866 -0.19745825 37 33
4.5815439 -0.14933088 -0.13418826 43 41
4.5199943 -0.30290261 -0.3134692 35 23
4.528852 -0.3042849 -0.25096968 97 27
4.5142121 -0.3064757 -0.43931609 34 15
4.5148711 -0.30731168 -0.3761858 24 19
4.5438991 -0.16163202 -0.5139432 40 11
4.5686955 -0.16488875 -0.19724102 22 33
4.5760007 -0.16514641 -0.13404082 49 41
4.5139332 -0.31833056 -0.31312129 22 23
4.5178027 -0.31939349 -0.25041321 95 27
4.5081515 -0.32187992 -0.43882906 26 15
4.5088005 -0.32271683 -0.37576827 21 19
4.5383425 -0.17730235 -0.51337719 26 11
4.5631008 -0.18064196 -0.19702379 23 33
4.5177693 -0.33445048 -0.3134692 24 23
4.507 -0.33761439 -0.43882906 26 15
4.5076466 -0.33845353 -0.37576827 23 19
4.5376959 -0.19314304 -0.51337719 22 11
4.5574512 -0.19635814 -0.19680656 25 33
4.5066276 -0.34945303 -0.31277335 24 23
4.5008326 -0.35295853 -0.43834203 36 15
4.5014701 -0.35379863 -0.37535074 30 19
4.5320315 -0.20875688 -0.51281118 25 11
4.5567379 -0.21226543 -0.19680656 30 33
4.5053802 -0.36518198 -0.31277335 38 23
4.4946132 -0.36826381 -0.43785498 40 15
4.5002074 -0.36950955 -0.37535074 37 19
4.5312753 -0.22457537 -0.51281118 27 11
4.5509806 -0.22792436 -0.19658935 37 33
4.4991078 -0.38048911 -0.31242543 92 23
4.4933004 -0.38395071 -0.43785498 46 15
4.493926 -0.38479382 -0.37493321 45 19
4.5255027 -0.24013197 -0.51224518 32 11
4.5451689 -0.24354568 -0.19637212 97 33
4.4919329 -0.39963287 -0.43785498 50 15
4.4925551 -0.40047821 -0.37493321 48 19
4.5246372 -0.25592747 -0.51224518 41 11
4.4855547 -0.41485491 -0.43736792 47 15
4.4861684 -0.41570091 -0.37451571 45 19
4.5187569 -0.27142605 -0.51167917 46 11
4.4840794 -0.43050987 -0.43736792 98 15
4.4846902 -0.43135804 -0.37451571 45 19
4.5177822 -0.2871978 -0.51167917 38 11
4.478199 -0.44651851 -0.37409818 97 19
4.5068374 -0.3023093 -0.5105471 40 11
4.5007997 -0.31769365 -0.5099811 39 11
4.4996634 -0.33340243 -0.5099811 38 11
4.488565 -0.34834656 -0.50884908 97 11
4.4873219 -0.36401245 -0.50884908 95 11
4.6511087 0.49918729 -0.27496514 54 26
4.6478577 0.48243749 -0.27466947 49 26
4.6495137 0.46621051 -0.27466947 49 26
4.6461439 0.44950116 -0.2743738 47 26
4.6645021 0.45044076 -0.21035373 76 32
4.6384554 0.43242741 -0.33865285 49 22
4.6427145 0.43282107 -0.27407813 47 26
4.6610727 0.43369713 -0.2101278 43 32
4.6300025 0.41535047 -0.33792225 50 22
4.639226 0.41617039 -0.27378249 47 26
4.6625586 0.41742432 -0.2101278 41 32
4.631424 0.39918622 -0.33792225 41 22
4.6406503 0.39997393 -0.27378249 45 26
4.6639872 0.40114641 -0.2101278 37 32
4.6278191 0.3826102 -0.3375569 25 22
4.637043 0.38336533 -0.27348682 29 26
4.6603804 0.38445696 -0.20990185 23 32
4.6629176 0.38384488 -0.14509332 41 40
4.6239858 0.36686307 -0.40105358 43 18
4.6191835 0.36567476 -0.33682629 20 22
4.6383529 0.36717668 -0.27348682 29 26
4.6567144 0.36779752 -0.20967591 17 32
4.6592469 0.36717734 -0.14493713 43 40
4.6202707 0.35034749 -0.40061954 33 18
4.6204319 0.34954858 -0.33682629 25 22
4.6346292 0.35061109 -0.27319115 29 26
4.65797 0.3515403 -0.20967591 30 32
4.6605005 0.35091129 -0.14493713 43 40
4.6214657 0.33421764 -0.40061954 35 18
4.6166496 0.33306336 -0.33646095 25 22
4.6358247 0.33443111 -0.27319115 35 26
4.6641512 0.33563334 -0.20990185 23 32
4.6567116 0.33428714 -0.14478095 43 40
4.6832113 0.33616802 -0.08051566 29 48
4.6176348 0.31774572 -0.40018553 42 18
4.6177845 0.31694618 -0.33646095 31 22
4.6369643 0.31824699 -0.27319115 44 26
4.6603103 0.31901324 -0.20967591 28 32
4.6578503 0.31803015 -0.14478095 43 40
4.6743813 0.3191455 -0.080342889 43 48
4.6588826 0.45375374 -0.21823497 37 31
4.6075954 0.30171561 -0.46456525 43 14
4.6087747 0.30098408 -0.39931741 57 18
4.6188631 0.30082521 -0.33646095 49 22
4.6330657 0.30173868 -0.27289549 44 26
4.6564107 0.30242404 -0.20944995 32 32
4.6589317 0.30176926 -0.14478095 43 40
4.6754661 0.30282688 -0.080342889 41 48
4.665411 0.43795237 -0.21846962 54 31
4.5937247 0.28471923 -0.46305197 60 14
4.6097965 0.28489465 -0.39931741 56 18
4.6149073 0.28439781 -0.33609563 53 22
4.6340904 0.28556439 -0.27289549 43 26
4.6574383 0.28616831 -0.20944995 41 32
4.6549687 0.2852031 -0.14462477 43 40
4.6715045 0.28620288 -0.080256492 39 48
4.6569624 0.42077121 -0.21800031 52 31
4.5996566 0.26896876 -0.46355641 53 14
4.6107631 0.26880172 -0.39931741 44 18
4.6158714 0.26828706 -0.33609563 42 22
4.6300759 0.26910111 -0.27259985 43 26
4.6484361 0.26933929 -0.20899808 37 32
4.6509466 0.26866829 -0.14446859 43 40
4.6674838 0.26961026 -0.080170102 20 48
4.6731892 0.26911694 -0.015404027 36 56
4.6633787 0.40494204 -0.21823497 35 31
4.6659636 0.40516499 -0.1533611 36 39
4.6005673 0.2529113 -0.46355641 43 14
4.606699 0.25243697 -0.39888337 39 18
4.6068206 0.25163713 -0.33536497 30 22
4.6309872 0.25293747 -0.27259985 32 26
4.6443596 0.25284404 -0.20877212 20 32
4.6468654 0.25216505 -0.1443124 42 40
4.6634045 0.25304919 -0.080083713 17 48
4.669107 0.25253677 -0.015387446 40 56
4.6647639 0.38866132 -0.21823497 25 31
4.6623693 0.38846317 -0.1531962 54 39
4.5865183 0.23609579 -0.46204317 25 14
4.6025782 0.23610391 -0.39844933 30 18
4.6076717 0.23555478 -0.33536497 25 22
4.6218724 0.23626921 -0.27200851 33 26
4.6502028 0.23688078 -0.20899808 29 32
4.6477175 0.23594292 -0.1443124 40 40
4.6592669 0.2365199 -0.079997323 20 48
4.6749544 0.23648562 -0.015404027 33 56
4.6611137 0.37198141 -0.21800031 23 31
4.6636972 0.37218609 -0.1531962 58 39
4.5873151 0.22008441 -0.46204317 25 14
4.5983987 0.21980271 -0.39801532 34 18
4.6034846 0.21923645 -0.33499968 29 22
4.6226687 0.22013444 -0.27200851 28 26
4.6460118 0.2204144 -0.20877212 20 32
4.6485128 0.21971793 -0.1443124 39 40
4.6600637 0.2202546 -0.079997323 17 48
4.6657615 0.21970318 -0.015370864 38 56
4.6623836 0.35570884 -0.21800031 25 31
4.6599846 0.35552719 -0.15303129 54 39
4.6470852 0.48184711 -0.2908535 58 25
4.5880551 0.20407036 -0.46204317 28 14
4.5991373 0.20374997 -0.39801532 31 18
4.6042218 0.20316593 -0.33499968 23 22
4.6234088 0.20399694 -0.27200851 33 26
4.6467528 0.20419544 -0.20877212 20 32
4.644258 0.20327574 -0.14415622 40 40
4.6558094 0.20377198 -0.079910934 32 48
4.6665001 0.2034153 -0.015370864 42 56
4.6762533 0.20383261 0.049452096 43 64
4.6586156 0.33907223 -0.21776563 29 31
4.6611972 0.33925861 -0.15303129 58 39
4.6785383 0.33066204 -0.088552438 49 47
4.6388073 0.46463156 -0.29022732 58 25
4.5937099 0.18825342 -0.4625476 32 14
4.6523304 0.4659813 -0.22609809 8 30
4.5998206 0.18769473 -0.39801532 40 18
4.6049027 0.18709296 -0.33499968 28 22
4.6191053 0.18765843 -0.27171284 44 26
4.642446 0.18777616 -0.20854618 23 32
4.639946 0.18686596 -0.14400004 42 40
4.6564922 0.18751894 -0.079910934 23 48
4.6671815 0.18712494 -0.015370864 42 56
4.6769361 0.1875082 0.049452096 48 64
4.659771 0.32280856 -0.21776563 29 31
4.6573677 0.32264346 -0.15286638 54 39
4.6746759 0.31399676 -0.088457331 81 47
4.6453686 0.44891459 -0.2905404 49 25
4.5843964 0.17185268 -0.46153876 36 14
4.6588998 0.45021749 -0.22634147 54 30
4.6004477 0.17163724 -0.39801532 42 18
4.6055284 0.17101772 -0.33499968 46 22
4.6147447 0.17135245 -0.27141717 43 26
4.6380825 0.17138948 -0.20832025 30 32
4.6355753 0.17048873 -0.14384386 43 40
4.6571178 0.17126361 -0.079910934 43 48
4.6678061 0.17083229 -0.015370864 42 56
4.6625729 0.17064497 0.0492924 41 64
4.6608691 0.30654097 -0.21776563 32 31
4.6584654 0.30638424 -0.15286638 48 39
4.6757441 0.29767719 -0.088457331 51 47
4.63697 0.43177462 -0.28991425 49 25
4.5849686 0.1558491 -0.46153876 42 14
4.6504974 0.4330295 -0.22585471 42 30
4.5910616 0.15524904 -0.39714721 51 18
4.6011128 0.15477678 -0.33463433 51 22
4.6153145 0.15524293 -0.27141717 43 26
4.6386518 0.15519847 -0.20832025 41 32
4.6361423 0.1543065 -0.14384386 43 40
4.6526914 0.15484393 -0.079824544 42 48
4.6633773 0.15437615 -0.015354284 42 56
4.6681371 0.15452988 0.049345631 39 64
4.6569252 0.28996208 -0.21753097 36 31
4.6545186 0.28981364 -0.15270148 48 39
4.6717644 0.28105661 -0.088362209 41 47
4.6289306 0.41555083 -0.35402131 87 21
4.6825261 0.28169787 -0.023561623 37 55
4.6384487 0.41558591 -0.28991425 48 25
4.5854845 0.13984363 -0.46153876 49 14
4.6569548 0.41723752 -0.22609809 46 30
4.5915756 0.13922231 -0.39714721 48 18
4.6696758 0.41755137 -0.16164583 20 38
4.601625 0.13871495 -0.33463433 43 22
4.615828 0.13913153 -0.27141717 43 26
4.5992227 0.13784108 -0.20651267 36 32
4.6366525 0.13812241 -0.14384386 43 40
4.653203 0.13860206 -0.079824544 35 48
4.6588898 0.13795301 -0.015337702 42 56
4.6636505 0.13809016 0.0492924 32 64
4.6579094 0.27370459 -0.21753097 30 31
4.6625595 0.13642983 0.11392883 43 70
4.6555023 0.27356458 -0.15270148 49 39
4.6677251 0.26446748 -0.088267095 25 47
4.6204181 0.39853689 -0.35325584 28 21
4.6784887 0.26507112 -0.023536317 49 55
4.6348987 0.3989659 -0.28960115 39 25
4.5809722 0.12370623 -0.46103433 40 14
4.6583829 0.40097919 -0.22609809 38 30
4.5870547 0.12306435 -0.39671317 37 18
4.6661267 0.40082267 -0.16147222 50 38
4.5921106 0.12239384 -0.33390367 28 22
4.6112962 0.12288953 -0.27112153 43 26
4.5946827 0.12165783 -0.20628676 20 32
4.6321106 0.1218093 -0.14368767 38 40
4.6436639 0.12210376 -0.079651766 17 48
4.6543446 0.12156309 -0.015321121 35 56
4.654108 0.12155711 0.049185935 17 64
4.6488624 0.25689837 -0.21706165 23 31
4.648016 0.11977939 0.11355972 39 70
4.6514387 0.25703928 -0.15253657 46 39
4.6636276 0.24790995 -0.088171974 20 47
4.6267495 0.38281551 -0.35363859 23 21
4.6793857 0.24873853 -0.023536317 42 55
4.6362634 0.38278466 -0.28960115 49 25
4.5764031 0.10760204 -0.46052995 20 14
4.6547771 0.38430676 -0.22585471 20 30
4.5824771 0.10693967 -0.39627916 30 18
4.6674972 0.38453242 -0.16147222 51 38
4.5925102 0.10636365 -0.33390367 23 22
4.601717 0.10656936 -0.27053019 25 26
4.6250415 0.10628288 -0.20764241 20 32
4.6275115 0.10552958 -0.14353149 41 40
4.644062 0.1058936 -0.079651766 17 48
4.6497412 0.10520659 -0.015304538 28 56
4.6495047 0.10520142 0.049132705 17 64
4.6497312 0.24066928 -0.21706165 20 31
4.6434093 0.10344677 0.1134367 37 70
4.6473169 0.24054573 -0.15237167 40 39
4.6644645 0.23162934 -0.088171974 23 47
4.6230879 0.36627078 -0.35325584 39 21
4.675231 0.23215778 -0.023511007 31 55
4.6325965 0.36620721 -0.28928807 28 25
4.5817242 0.091722265 -0.46103433 23 14
4.6511111 0.36766434 -0.22561133 20 30
4.5878015 0.091037929 -0.39671317 27 18
4.6638288 0.36784625 -0.16129859 50 38
4.5928535 0.090332143 -0.33390367 20 22
4.6070518 0.090599805 -0.27082586 23 26
4.6203899 0.090044551 -0.20741646 29 32
4.6228547 0.089283459 -0.14337531 41 40
4.6394048 0.089589678 -0.079565376 20 48
4.6500802 0.088975318 -0.015304538 34 56
4.6498437 0.088970989 0.049132705 20 64
4.6505423 0.22443722 -0.21706165 23 31
4.6487389 0.087327458 0.11355972 23 70
4.648128 0.2243221 -0.15237167 35 39
4.5879836 0.22065161 -0.54745197 55 10
4.6602511 0.21511827 -0.088076867 23 47
4.6143961 0.34938169 -0.35249043 28 21
4.6710181 0.21560907 -0.0234857 37 55
4.6338468 0.35003421 -0.28928807 30 25
4.5820165 0.075728491 -0.46103433 25 14
4.6709313 0.2147882 0.041300923 43 63
4.6523662 0.35142669 -0.22561133 25 30
4.5831113 0.074945599 -0.39627916 31 18
4.6601014 0.35119042 -0.16112496 39 38
4.5931411 0.074299544 -0.33390367 23 22
4.5973577 0.074364319 -0.27023453 30 26
4.6206765 0.073915832 -0.20741646 23 32
4.623138 0.073146135 -0.14337531 39 40
4.6242418 0.34606558 -0.41792011 46 17
4.6346898 0.073319539 -0.079478979 33 48
4.6453633 0.072668798 -0.015287959 39 56
4.6451273 0.072665296 0.049079478 35 64
4.6463079 0.20798197 -0.21682699 25 31
4.6488829 0.20809574 -0.15237167 36 39
4.6772757 0.34673256 -0.096675336 46 46
4.5887256 0.2046352 -0.54745197 52 10
4.6609735 0.19884966 -0.088076867 25 47
4.6155877 0.33327231 -0.35249043 39 21
4.6667466 0.19909263 -0.023460392 42 55
4.6350403 0.33385694 -0.28928807 33 25
4.5822525 0.059733815 -0.46103433 28 14
4.6716523 0.19848229 0.041300923 52 63
4.6535645 0.33518478 -0.22561133 25 30
4.5833454 0.058947094 -0.39627916 33 18
4.6563148 0.33456507 -0.16095133 49 38
4.5933723 0.058266036 -0.33390367 23 22
4.5975895 0.058316093 -0.27023453 44 26
4.6209064 0.057786215 -0.20741646 23 32
4.6233654 0.057007927 -0.14337531 43 40
4.6105213 0.32886419 -0.41656324 54 17
4.6399169 0.057198599 -0.079565376 25 48
4.6405888 0.056396291 -0.015271377 42 56
4.6453528 0.056450337 0.049079478 30 64
4.6470056 0.19176206 -0.21682699 28 31
4.644588 0.19166367 -0.15220676 56 39
4.673471 0.33005327 -0.096571505 45 46
4.5894122 0.18861631 -0.54745197 51 10
4.6619248 0.46668336 -0.23469935 54 29
4.6616397 0.18257862 -0.088076867 43 47
4.6167231 0.31715885 -0.35249043 45 21
4.6674132 0.18280143 -0.023460392 52 55
4.6311984 0.31733617 -0.28897497 38 25
4.5774589 0.043694995 -0.46052995 32 14
4.6673212 0.18198203 0.041256417 49 63
4.6497235 0.3185991 -0.22536796 28 30
4.5785418 0.042905271 -0.39584512 39 18
4.6574545 0.31830946 -0.16095133 54 38
4.5885615 0.042190045 -0.33353838 43 22
4.597765 0.042267151 -0.27023453 45 26
4.6160855 0.04161492 -0.20719053 29 32
4.6185389 0.040828906 -0.14321913 43 40
4.6215773 0.31343889 -0.4174678 56 17
4.6350889 0.04096178 -0.079478979 46 48
4.6407576 0.040197264 -0.015271377 42 56
4.6355224 0.040156145 0.048973009 34 64
4.6426554 0.17535417 -0.21659233 31 31
4.6402354 0.17526416 -0.15204187 56 39
4.6745949 0.31373781 -0.096571505 43 46
4.5850825 0.1724115 -0.54685563 65 10
4.658555 0.4499279 -0.23444727 57 29
4.6522565 0.16595466 -0.087886631 44 47
4.6178021 0.30104157 -0.35249043 32 21
4.6630268 0.16633266 -0.023435086 47 55
4.632278 0.30116835 -0.28897497 45 25
4.5775833 0.027716413 -0.46052995 46 14
4.662931 0.16551447 0.041211914 48 63
4.6508074 0.30236658 -0.22536796 31 30
4.5786638 0.026922915 -0.39584512 49 18
4.6535506 0.3017284 -0.16077772 52 38
4.583694 0.026148349 -0.33317307 33 22
4.5978847 0.026217701 -0.27023453 45 26
4.611208 0.025477983 -0.20696458 43 32
4.6186533 0.024706945 -0.14321913 43 40
4.6077352 0.29635105 -0.41611093 56 17
4.6352038 0.02478205 -0.079478979 34 48
4.6408696 0.023997758 -0.015271377 43 56
4.6406341 0.023996731 0.049026243 47 64
4.638248 0.15897901 -0.21635768 34 31
4.6358237 0.15889733 -0.15187696 48 39
4.6706729 0.2971029 -0.096467659 43 46
4.5856562 0.15640551 -0.54685563 40 10
4.6815448 0.29779071 -0.031685986 20 54
4.6600971 0.43366376 -0.23444727 55 29
4.6579599 0.43346512 -0.16859035 20 37
4.6528072 0.14971425 -0.087886631 42 47
4.6138482 0.28461537 -0.35210767 51 21
4.6635785 0.15005465 -0.023435086 44 55
4.6283207 0.28469223 -0.28866193 46 25
4.5726781 0.011728814 -0.46002552 49 14
4.6634808 0.14923678 0.041211914 42 63
4.651835 0.2861304 -0.22536796 39 30
4.5737486 0.010932408 -0.39541104 48 18
4.6545753 0.28548265 -0.16077772 50 38
4.5837579 0.010148113 -0.33317307 38 22
4.592958 0.01016096 -0.26993889 45 26
4.6112685 0.0093817087 -0.20696458 40 32
4.6123748 0.28129289 -0.48107666 88 13
4.6137137 0.0085794497 -0.14306295 43 40
4.6037707 0.27996472 -0.41565862 54 17
4.6252632 0.0085915457 -0.0793062 38 48
4.6309252 0.0077892253 -0.015238213 42 56
4.6306901 0.0077890204 0.048919778 39 64
4.6387749 0.14278756 -0.21635768 34 31
4.6363506 0.14271432 -0.15187696 48 39
4.6666913 0.28049919 -0.09636382 41 46
4.591136 0.14054665 -0.54745197 65 10
4.6775651 0.28114903 -0.031651955 42 54
4.6566091 0.41694957 -0.23419517 39 29
4.6644216 0.41764823 -0.16877182 51 37
4.6533017 0.13347201 -0.087886631 39 47
4.6148138 0.26850829 -0.35210767 36 21
4.6590762 0.13363431 -0.023409776 40 55
4.6292858 0.26853463 -0.28866193 42 25
4.5677161 -0.0042248378 -0.45952109 41 14
4.6639733 0.13295729 0.041211914 25 63
4.6478195 0.26960328 -0.22512458 39 30
4.5737591 -0.005033657 -0.39541104 40 18
4.6505551 0.26894662 -0.16060409 42 38
4.583765 -0.0058528869 -0.33317307 30 22
4.5929651 -0.005872156 -0.26993889 45 26
4.6012826 -0.0066926535 -0.20651267 31 32
4.6033993 0.2646237 -0.4800331 34 13
4.6137156 -0.0075261109 -0.14306295 39 40
4.6047206 0.26389283 -0.41565862 46 17
4.6202664 -0.0075421175 -0.079219811 20 48
4.6309237 -0.0083764112 -0.015238213 40 56
4.6242666 0.12619425 -0.21565367 38 31
4.6368203 0.12652956 -0.15187696 45 39
4.6626506 0.26392689 -0.096259974 20 46
4.5866361 0.12438805 -0.54685563 38 10
4.6785178 0.26481956 -0.031651955 37 54
4.6580362 0.40069243 -0.23419517 41 29
4.6558943 0.40050846 -0.16840887 32 37
4.643744 0.11698212 -0.087696411 24 47
4.6107445 0.25212747 -0.35172495 44 21
4.6545153 0.11724725 -0.023384469 37 55
4.6252127 0.25210389 -0.28834882 33 25
4.5676742 -0.020169117 -0.45952109 25 14
4.6544123 0.11643185 0.041122902 17 63
4.6387587 0.25283754 -0.22463782 20 30
4.5737133 -0.020999026 -0.39541104 30 18
4.6464758 0.25244215 -0.16043046 39 38
4.5787296 -0.021825325 -0.33280772 20 22
4.587925 -0.021876682 -0.26964322 24 26
4.6062269 -0.022782858 -0.20673864 20 32
4.609261 0.24881953 -0.48055488 30 13
4.6086636 -0.023601281 -0.14290676 41 40
4.6056137 0.24781777 -0.41565862 38 17
4.6202121 -0.023669811 -0.079219811 17 48
4.6258659 -0.024510756 -0.015221632 39 56
4.6246791 0.11005178 -0.21565367 32 31
4.6322374 0.11022727 -0.15171205 38 39
4.6635432 0.24764958 -0.096259974 17 46
4.5820794 0.10826259 -0.54625928 30 10
4.6744208 0.24822345 -0.031617921 40 54
4.6594062 0.38443041 -0.23419517 25 29
4.6622438 0.38466421 -0.16859035 42 37
4.6441245 0.10077172 -0.087696411 23 47
4.6066179 0.23577835 -0.3513422 28 21
4.6498976 0.10089366 -0.023359159 28 55
4.6210799 0.23570487 -0.28803575 28 25
4.5626011 -0.036069743 -0.45901668 28 14
4.6497908 0.1000795 0.041078396 20 63
4.6396127 0.2366437 -0.22463782 34 30
4.5686312 -0.036919799 -0.394977 27 18
4.6473289 0.23622137 -0.16043046 38 38
4.5786262 -0.037807945 -0.33280772 23 22
4.587821 -0.037891399 -0.26964322 23 26
4.6011238 -0.038815245 -0.20651267 20 32
4.595201 0.23198172 -0.47898951 28 13
4.6035557 -0.039641272 -0.14275058 40 40
4.6014771 0.23149121 -0.41520631 29 17
4.6151018 -0.039750095 -0.079133421 20 48
4.6257524 -0.040657893 -0.015221632 25 56
4.6250348 0.093907975 -0.21565367 25 31
4.6275978 0.093958527 -0.15154715 40 39
4.6593871 0.23112337 -0.096156143 17 46
4.5873928 0.092364527 -0.54685563 27 10
4.6752586 0.23190516 -0.031617921 28 54
4.6802411 0.2321506 0.033274416 37 62
4.6557417 0.36777103 -0.23394307 23 29
4.66854 0.36878049 -0.16877182 30 37
4.6394491 0.084471956 -0.087601289 25 47
4.6024337 0.21946114 -0.35095951 28 21
4.6502213 0.084661871 -0.023359159 31 55
4.61689 0.21933781 -0.28772265 31 25
4.562448 -0.05199597 -0.45901668 28 14
4.6501122 0.083848096 0.041078396 23 63
4.6354222 0.22021176 -0.22439446 23 30
4.5684743 -0.052867074 -0.394977 28 18
4.6481247 0.21999773 -0.16043046 36 38
4.5684934 -0.053664774 -0.33207712 23 22
4.6712441 0.35833097 -0.10468538 41 45
4.5826693 -0.053842921 -0.26934755 29 26
4.6009607 -0.054875929 -0.20651267 20 32
4.595983 0.21594006 -0.47898951 28 13
4.5983925 -0.055645898 -0.1425944 34 40
4.5972834 0.21519656 -0.41475406 31 17
4.6099362 -0.055794999 -0.079047032 33 48
4.6155834 -0.056673642 -0.01518847 28 56
4.6203399 0.077681951 -0.21541901 29 31
4.6229005 0.077723511 -0.15138224 40 39
4.6551719 0.21462914 -0.096052304 20 46
4.5876875 0.076350972 -0.54685563 27 10
4.6710448 0.21535549 -0.031583883 29 54
4.6760283 0.21558353 0.033238638 42 62
4.6520171 0.35114187 -0.23369098 29 29
4.6648159 0.35210648 -0.16859035 35 37
4.634717 0.068206072 -0.087506175 30 47
4.6081519 0.20361261 -0.3513422 34 21
4.6454897 0.068358377 -0.023333853 37 55
4.622613 0.20343819 -0.28803575 30 25
4.5622387 -0.067921571 -0.45901668 28 14
4.6453781 0.067545861 0.041033894 35 63
4.6361628 0.20402978 -0.22439446 23 30
4.5682621 -0.068813704 -0.394977 33 18
4.6438718 0.2035543 -0.16025683 39 38
4.5682783 -0.069611467 -0.33207712 34 22
4.6774516 0.34238741 -0.10479794 53 45
4.5774632 -0.069758952 -0.26905188 43 26
4.5907531 -0.07077381 -0.2060608 23 32
4.5917411 0.19968149 -0.47846779 25 13
4.5981698 -0.071696952 -0.1425944 43 40
4.5930314 0.19893402 -0.41430175 34 17
4.6047144 -0.07180433 -0.078960635 29 48
4.6205831 0.061553475 -0.21541901 31 31
4.6231437 0.061586101 -0.15138224 51 39
4.6558924 0.19837824 -0.096052304 25 46
4.582962 0.060274109 -0.54625928 27 10
4.6667728 0.19883807 -0.031549849 40 54
4.6767521 0.19925982 0.033238638 43 62
4.6532145 0.33490118 -0.23369098 25 29
4.6610327 0.33546296 -0.16840887 51 37
4.6423302 0.46937516 -0.30670348 12 24
4.6612091 0.46964249 -0.24281317 51 28
4.6349263 0.052027475 -0.087506175 42 47
4.6088338 0.18752591 -0.3513422 41 21
4.6406999 0.052088942 -0.023308545 50 55
4.618309 0.18710074 -0.28772265 36 25
4.5619736 -0.083846346 -0.45901668 40 14
4.6405854 0.051277693 0.040989388 35 63
4.636847 0.18784529 -0.22439446 25 30
4.5630145 -0.084663004 -0.39454299 39 18
4.6395617 0.18714328 -0.16008322 50 38
4.5680079 -0.085557304 -0.33207712 43 22
4.6686449 0.32536411 -0.10457282 46 45
4.5771918 -0.085736856 -0.26905188 44 26
4.591712 0.18362442 -0.57192832 55 9
4.5854836 -0.086699583 -0.20583485 29 32
4.5924101 0.1836521 -0.47846779 28 13
4.592895 -0.087647684 -0.14243822 53 40
4.5986733 0.1830965 -0.41475406 36 17
4.6094341 -0.087976806 -0.079047032 34 48
4.6157761 0.045378063 -0.21518438 31 31
4.6183338 0.045401726 -0.15121734 55 39
4.6565566 0.18212494 -0.096052304 31 46
4.5781803 0.044231161 -0.54566288 29 10
4.6674385 0.18254678 -0.031549849 42 54
4.6674271 0.18254635 0.033167079 47 62
4.6543555 0.31865638 -0.23369098 30 29
4.6621752 0.31919089 -0.16840887 54 37
4.6290436 0.45171222 -0.30571198 56 24
4.6578503 0.45288524 -0.24255238 42 28
4.6350799 0.035848245 -0.087506175 36 47
4.6044793 0.1712534 -0.35095951 31 21
4.6408529 0.035889562 -0.023308545 50 55
4.6139469 0.17079583 -0.28740957 40 25
4.5566802 -0.09965723 -0.45851231 43 14
4.6407366 0.035078716 0.040989388 48 63
4.632484 0.17147554 -0.22415107 33 30
4.5577116 -0.10047651 -0.39410895 49 18
4.6351929 0.17076482 -0.15990958 52 38
4.5676813 -0.10150212 -0.33207712 47 22
4.6697526 0.30906552 -0.10457282 50 45
4.5718751 -0.10159875 -0.26875624 45 26
4.5923252 0.16759524 -0.57192832 43 9
4.5851531 -0.10270537 -0.20583485 47 32
4.5830841 0.16726124 -0.4774242 31 13
4.5875654 -0.10356248 -0.14228202 43 40
4.5943084 0.16686401 -0.41430175 41 17
4.5891075 -0.10359855 -0.078701466 40 48
4.6159067 0.02926572 -0.21518438 35 31
4.6184645 0.029280454 -0.15121734 51 39
4.647172 0.165517 -0.095844612 42 46
4.5733423 0.028222336 -0.54506654 38 10
4.6680474 0.16625328 -0.031549849 43 54
4.668036 0.16625288 0.033167079 45 62
4.6504569 0.30208465 -0.23343891 39 29
4.6721463 0.16558141 0.097982481 76 69
4.6632609 0.30291492 -0.16840887 43 37
4.6454935 0.43695444 -0.30670348 43 24
4.6594028 0.43662357 -0.24255238 53 28
4.6301775 0.019650254 -0.087411053 43 47
4.6000657 0.15501355 -0.35057679 48 21
4.6409502 0.019689741 -0.023308545 44 55
4.6195025 0.15485457 -0.28772265 43 25
4.551332 -0.1154322 -0.45800787 48 14
4.6358309 0.018861858 0.040944882 46 63
4.6280622 0.15513852 -0.22390769 42 30
4.557333 -0.11638528 -0.39410895 49 18
4.6357608 0.15458393 -0.15990958 54 38
4.5623145 -0.1173134 -0.33171177 31 22
4.6708031 0.29276311 -0.10457282 40 45
4.5714927 -0.11755695 -0.26875624 46 26
4.5928822 0.151564 -0.57192832 55 9
4.6868291 0.29294461 -0.039853014 50 53
4.5847669 -0.11870991 -0.20583485 39 32
4.5886106 0.15142454 -0.47794598 31 13
4.58218 -0.11944113 -0.14212584 43 40
4.5898857 0.15066424 -0.41384944 47 17
4.5987134 -0.11988562 -0.078874253 43 48
4.6159806 0.013153022 -0.21518438 41 31
4.6135411 0.013147487 -0.15105243 48 39
4.6477213 0.14929433 -0.095844612 40 46
4.5734134 0.012258219 -0.54506654 42 10
4.6636024 0.14979896 -0.031515818 43 54
4.6635909 0.14979859 0.033131301 42 62
4.6514831 0.28584969 -0.23343891 40 29
4.6427178 0.14832422 0.097348981 42 69
4.6593027 0.28632933 -0.16822739 41 37
4.6320844 0.41938463 -0.30571198 52 24
4.6559258 0.41990748 -0.24229157 54 28
4.6638942 0.41980642 -0.17769298 37 36
4.6252193 0.0034869248 -0.087315939 37 47
4.6005793 0.13895538 -0.35057679 48 21
4.6309915 0.003487933 -0.023257928 40 55
4.615027 0.1385805 -0.28740957 44 25
4.5509014 -0.13131861 -0.45800787 45 14
4.6358685 0.0026790272 0.040944882 42 63
4.6136003 0.13853815 -0.22317757 40 30
4.5568991 -0.13229263 -0.39410895 46 18
4.6312771 0.13825378 -0.15973595 43 38
4.5568924 -0.13308845 -0.33134645 45 22
4.6668062 0.27616251 -0.10446025 38 45
4.5610762 -0.13321409 -0.2681649 45 26
4.5884242 0.13538636 -0.57130593 58 9
4.6828322 0.27628884 -0.039810251 43 53
4.5793319 -0.13456222 -0.2056089 29 32
4.5841403 0.13526146 -0.4774242 38 13
4.5817347 -0.13543521 -0.14212584 42 40
4.5903835 0.13464163 -0.41384944 46 17
4.5832753 -0.135482 -0.078615077 39 48
4.606009 -0.0029482758 -0.21471503 39 31
4.6135588 -0.0029574991 -0.15105243 45 39
4.6482139 0.13306984 -0.095844612 31 46
4.5684643 -0.0036997539 -0.54447025 41 10
4.6590981 0.13337767 -0.031481784 42 54
4.6640849 0.1335187 0.033131301 32 62
4.652452 0.26961124 -0.23343891 36 29
4.6581979 0.13253854 0.097665727 40 69
4.6602736 0.27006358 -0.16822739 45 37
4.6285496 0.40278 -0.30538148 54 24
4.6573629 0.40365267 -0.24229157 47 28
4.6703086 0.40395492 -0.17788404 49 36
4.6202044 -0.012642192 -0.087220825 20 47
4.5960526 0.12276414 -0.35019404 43 21
4.6309752 -0.012677909 -0.023257928 43 55
4.6104946 0.12233959 -0.2870965 34 25
4.5404716 -0.14687355 -0.456999 25 14
4.6140556 0.12243285 -0.22317757 20 30
4.5464525 -0.14786631 -0.39324084 34 18
4.6317315 0.12208676 -0.15973595 41 38
4.5514164 -0.14882709 -0.33098111 17 22
4.6627502 0.25959331 -0.10434768 30 45
4.5605836 -0.1491344 -0.2681649 29 26
4.5839095 0.11924168 -0.57068366 47 9
4.6787763 0.25966457 -0.039767493 39 53
4.573843 -0.15037805 -0.20538297 23 32
4.5845842 0.119259 -0.4774242 37 13
4.5762401 -0.15125844 -0.14196967 41 40
4.5908256 0.11861739 -0.41384944 37 17
4.6059709 -0.019026231 -0.21471503 23 31
4.6085229 -0.019038256 -0.15088753 41 39
4.6386561 0.11659599 -0.095636941 14 46
4.5634589 -0.019622386 -0.54387385 33 10
4.6595359 0.11711357 -0.031481784 39 54
4.6495275 0.11686548 0.033023961 14 62
4.6483784 0.25309855 -0.2331868 23 29
4.6486373 0.11603157 0.097454555 20 69
4.6561985 0.25352344 -0.16804592 38 37
4.6152983 0.38539755 -0.36891568 34 20
4.6398716 0.38745239 -0.30604249 39 24
4.6587439 0.387393 -0.24229157 35 28
4.6617317 0.38682258 -0.1775019 43 36
4.6151328 -0.02873561 -0.087125711 20 47
4.5914688 0.10660621 -0.34981132 35 21
4.6259027 -0.028808918 -0.02323262 33 55
4.6059046 0.10613201 -0.28678343 29 25
4.5399308 -0.16272184 -0.456999 23 14
4.6144547 0.10632604 -0.22317757 20 30
4.5459085 -0.16373549 -0.39324084 23 18
4.6271334 0.10580575 -0.15956232 42 38
4.550869 -0.16471361 -0.33098111 20 22
4.6586366 0.24305584 -0.10423513 23 45
4.5600352 -0.16505292 -0.2681649 22 26
4.5892577 0.10335007 -0.57130593 39 9
4.6796541 0.243331 -0.039767493 41 53
4.5682983 -0.16615719 -0.20515703 23 32
4.5800014 0.10314486 -0.47690243 23 13
4.6797976 0.24251951 0.025158798 35 61
4.5607014 -0.16667171 -0.14150111 38 40
4.581255 0.10237271 -0.41294488 28 17
4.6008816 -0.035062976 -0.21448037 18 31
4.6034312 -0.03508389 -0.15072262 36 39
4.6390347 0.10040335 -0.095636941 17 46
4.5633626 -0.035551708 -0.54387385 29 10
4.6499186 0.10063514 -0.031413712 20 54
4.6499071 0.1006349 0.033023961 14 62
4.6442461 0.23661764 -0.2329347 17 29
4.639019 0.099592984 0.097243391 14 69
4.6520648 0.23701508 -0.16786444 40 37
4.6166153 0.36928478 -0.36891568 20 20
4.6362219 0.37085542 -0.30571198 33 24
4.6550899 0.37073162 -0.24203075 20 28
4.6680341 0.37094408 -0.17769298 40 36
4.6150045 -0.044845257 -0.087125711 23 47
4.5918131 0.09057834 -0.34981132 23 21
4.6257739 -0.044956155 -0.02323262 25 55
4.6062465 0.09005376 -0.28678343 31 25
4.5393353 -0.17856818 -0.456999 23 14
4.6147976 0.090217948 -0.22317757 31 30
4.5453091 -0.17960268 -0.39324084 22 18
4.6224785 0.089558348 -0.15938869 31 38
4.5502663 -0.18059808 -0.33098111 17 22
4.6594563 0.22679268 -0.10423513 28 45
4.5544438 -0.18076733 -0.26786923 27 26
4.58463 0.087237306 -0.57068366 31 9
4.6754804 0.22675282 -0.03972473 23 53
4.5676904 -0.18210252 -0.20515703 23 32
4.5853052 0.08724992 -0.4774242 29 13
4.6806164 0.22618249 0.025158798 43 61
4.5700793 -0.18299861 -0.14181349 25 40
4.5815849 0.086380519 -0.41294488 29 17
4.6007309 -0.05112284 -0.21448037 25 31
4.6032805 -0.051152654 -0.15072262 34 39
4.6343584 0.084120497 -0.095533095 20 46
4.5632105 -0.051480599 -0.54387385 28 10
4.6502414 0.084403276 -0.031413712 25 54
4.6452312 0.084314071 0.032988187 25 62
4.6450438 0.22040476 -0.2329347 29 29
4.6293416 0.083222941 0.097032219 23 69
4.652864 0.2207749 -0.16786444 31 37
4.6178761 0.35316759 -0.36891568 25 20
4.6325135 0.35428873 -0.30538148 36 24
4.6513767 0.35410044 -0.24176994 23 28
4.669301 0.35464734 -0.17769298 44 36
4.6713843 0.35398585 -0.11279894 46 44
4.6098213 -0.060885426 -0.08703059 28 47
4.5921016 0.07454937 -0.34981132 30 21
4.6155901 -0.060964968 -0.023182005 30 55
4.6015434 0.073896013 -0.28647032 28 25
4.5337148 -0.19419535 -0.45649463 23 14
4.6100912 0.074030302 -0.22293417 25 30
4.5396781 -0.19524954 -0.39280683 29 18
4.6177669 0.07334473 -0.15921508 33 38
4.5446262 -0.19626114 -0.33061582 28 22
4.6552262 0.21030176 -0.10412256 23 45
4.5487986 -0.19644475 -0.2675736 39 26
4.579946 0.071158104 -0.57006133 31 9
4.6712489 0.21020679 -0.039681971 35 53
4.5620365 -0.1978251 -0.20493108 23 32
4.5855818 0.071243681 -0.4774242 25 13
4.6763821 0.20961936 0.025131745 42 61
4.5544343 -0.19828564 -0.14134495 32 40
4.5818586 0.070387274 -0.41294488 29 17
4.6005244 -0.067182072 -0.21448037 28 31
4.5980778 -0.067144915 -0.15055773 42 39
4.6296253 0.067871504 -0.095429257 28 46
4.5580392 -0.067332625 -0.5432775 27 10
4.6455088 0.068098836 -0.031379681 35 54
4.6454973 0.068098672 0.032988187 30 62
4.6407962 0.20397051 -0.2326826 23 29
4.6396012 0.067204356 0.097243391 29 69
4.6486144 0.2043132 -0.16768296 38 37
4.6141095 0.33668268 -0.36851555 30 20
4.6337223 0.33811605 -0.30538148 30 24
4.6575651 0.33822417 -0.24203075 23 28
4.6655269 0.33798474 -0.1775019 31 36
4.6676064 0.33731669 -0.11267765 55 44
4.6045823 -0.076889962 -0.086935475 32 47
4.5923333 0.05851949 -0.34981132 38 21
4.6017728 0.057833184 -0.28647032 34 25
4.5330091 -0.21001978 -0.45649463 36 14
4.6103215 0.05793763 -0.22293417 29 30
4.538969 -0.2110948 -0.39280683 35 18
4.6179948 0.057225268 -0.15921508 48 38
4.5439138 -0.21212365 -0.33061582 37 22
4.6559319 0.19405068 -0.10412256 29 45
4.5480852 -0.21232182 -0.2675736 43 26
4.5752053 0.055112656 -0.56943893 36 9
4.6669583 0.19369304 -0.039639208 42 53
4.5613179 -0.21374838 -0.20493108 28 32
4.5808296 0.05517843 -0.47690243 34 13
4.6770854 0.19329448 0.025131745 40 61
4.5820761 0.054393172 -0.41294488 32 17
4.5902753 -0.083053969 -0.21401106 32 31
4.5928192 -0.083101481 -0.15039282 51 39
4.6298342 0.05171068 -0.095429257 32 46
4.5577765 -0.083242737 -0.5432775 30 10
4.6407185 0.051828466 -0.031345647 42 54
4.640707 0.05182834 0.032952406 41 62
4.64148 0.18776985 -0.2326826 30 29
4.6443062 0.18788385 -0.16750149 53 37
4.5947242 0.31995165 -0.43116021 61 16
4.6202292 0.32092038 -0.36891568 36 20
4.6298971 0.32159305 -0.30505097 32 24
4.6537352 0.32161933 -0.24176994 29 28
4.6666784 0.32169694 -0.1775019 38 36
4.6687555 0.32102162 -0.11267765 56 44
4.6092839 -0.093066312 -0.08703059 39 47
4.5875254 0.042444527 -0.34942862 29 21
4.6019468 0.041769646 -0.28647032 39 25
4.5272803 -0.22558999 -0.45599023 42 14
4.610496 0.041844252 -0.22293417 33 30
4.5332298 -0.22668457 -0.39237279 46 18
4.618166 0.04110511 -0.15921508 49 38
4.5431457 -0.22798356 -0.33061582 45 22
4.6515851 0.1776071 -0.10400999 41 45
4.5423317 -0.22794205 -0.26727793 44 26
4.5704093 0.039101176 -0.5688166 55 9
4.6676064 0.17740113 -0.039639208 62 53
4.5455794 -0.2289031 -0.20425326 35 32
4.5809951 0.039188012 -0.47690243 41 13
4.6727347 0.17677876 0.025104692 54 61
4.5822382 0.038398411 -0.41294488 38 17
4.5899577 -0.099076509 -0.21401106 38 31
4.5875049 -0.099022135 -0.1502279 56 39
4.6299863 0.035549231 -0.095429257 45 46
4.5624213 -0.099262729 -0.54387385 40 10
4.6408706 0.035629019 -0.031345647 42 54
4.6408591 0.035628937 0.032952406 42 62
4.6371169 0.17138307 -0.23243053 35 29
4.6449337 0.17167106 -0.16750149 54 37
4.6007795 0.30424014 -0.4316299 65 16
4.6213212 0.30479079 -0.36891568 36 20
4.6309915 0.3054297 -0.30505097 38 24
4.65483 0.30537277 -0.24176994 34 28
4.6627874 0.30507845 -0.17731084 48 36
4.6648602 0.30439666 -0.11255636 56 44
4.6701546 0.45629722 -0.18620212 36 35
4.5939379 -0.10879134 -0.086745247 48 47
4.5826597 0.026403841 -0.34904587 46 21
4.5970745 0.025679469 -0.28615725 43 25
4.5264649 -0.24139176 -0.45599023 47 14
4.6056194 0.025724212 -0.22269079 46 30
4.5274372 -0.24223687 -0.39193872 48 18
4.6132846 0.024959154 -0.15904145 52 38
4.5323639 -0.24329789 -0.32988515 45 22
4.6471815 0.16119628 -0.10389742 49 45
4.5365248 -0.24352469 -0.26698226 43 26
4.570518 0.023147233 -0.5688166 53 9
4.6681967 0.16110708 -0.039639208 49 53
4.5547271 -0.24531418 -0.20470513 43 32
4.5811033 0.02319712 -0.47690243 44 13
4.6683264 0.16029578 0.025077639 40 61
4.5773649 0.022380583 -0.41249257 44 17
4.5845909 -0.11496972 -0.21377639 45 31
4.587131 -0.1150349 -0.1502279 51 39
4.6250834 0.019368151 -0.09532541 42 46
4.5521212 -0.11493151 -0.54268116 38 10
4.6359668 0.019409942 -0.031311609 42 54
4.6359558 0.019409899 0.032916628 42 62
4.6326957 0.15502903 -0.23217843 38 29
4.640511 0.15528966 -0.16732003 42 37
4.6018133 0.28817856 -0.4316299 54 16
4.6173825 0.28834626 -0.36851555 41 20
4.6320295 0.28926265 -0.30505097 40 24
4.6558671 0.28912252 -0.24176994 51 28
4.6588368 0.28849104 -0.17711976 47 36
4.6658945 0.28811139 -0.11255636 54 44
4.6869802 0.28941584 -0.047172602 48 52
4.6667442 0.43952236 -0.18600233 98 35
4.6035242 -0.12510394 -0.086935475 46 47
4.5827236 0.010407213 -0.34904587 47 21
4.5921459 0.009623819 -0.28584418 42 25
4.5206285 -0.25690421 -0.45548579 47 14
4.600687 0.0096387276 -0.22244741 43 30
4.5265636 -0.25803909 -0.39193872 44 18
4.6083469 0.0088477861 -0.15886782 45 38
4.5314865 -0.25911731 -0.32988515 40 22
4.6427197 0.14481834 -0.10378487 50 45
4.5356464 -0.25935861 -0.26698226 43 26
4.5656099 0.0071869465 -0.56819433 50 9
4.663734 0.14465663 -0.03959645 41 53
4.5388842 -0.26034126 -0.20402731 41 32
4.5761847 0.0071998676 -0.47638068 46 13
4.6688571 0.14399931 0.025077639 39 61
4.5724354 0.0063972445 -0.41204026 48 17
4.5841613 -0.13097224 -0.21377639 38 31
4.581706 -0.13090065 -0.15006301 45 39
4.6201243 0.0032217335 -0.095221579 39 46
4.546731 -0.13067515 -0.54208481 43 10
4.6310067 0.0032255338 -0.031277575 39 54
4.6359954 0.0032272758 0.032916628 41 62
4.6332083 0.13885695 -0.23217843 43 29
4.6360302 0.13894118 -0.16713855 42 37
4.5978227 0.27181911 -0.43116021 57 16
4.6183605 0.27222687 -0.36851555 51 20
4.6280308 0.272798 -0.30472049 43 24
4.6518641 0.27257615 -0.24150915 44 28
4.6598153 0.2722269 -0.17711976 48 36
4.661881 0.2715314 -0.11243507 47 44
4.677979 0.27247089 -0.047071379 39 52
4.6732259 0.42368254 -0.18620212 41 35
4.5880694 -0.14070401 -0.086650133 42 47
4.5827322 -0.0055901809 -0.34904587 40 21
4.5921516 -0.00640646 -0.28584418 36 25
4.5147395 -0.27237892 -0.45498136 42 14
4.6006927 -0.0064213667 -0.22244741 33 30
4.5206637 -0.27353323 -0.39150468 39 18
4.6083493 -0.0072390414 -0.15886782 40 38
4.5255771 -0.27462739 -0.32951984 20 22
4.6481934 0.12874915 -0.10389742 37 45
4.5347137 -0.2751894 -0.26698226 42 26
4.5606461 -0.0087394295 -0.56757194 50 9
4.6592121 0.12823929 -0.039553687 37 53
4.571209 -0.0087633952 -0.4758589 52 13
4.6693316 0.12770109 0.025077639 32 61
4.5724301 -0.0095642088 -0.41204026 41 17
4.5786848 -0.14681016 -0.21354173 23 31
4.5812216 -0.14689299 -0.15006301 41 39
4.615108 -0.012890467 -0.095117733 20 46
4.546247 -0.14654541 -0.54208481 35 10
4.6259894 -0.012924653 -0.03124354 36 54
4.6586251 0.12334115 -0.23343891 28 29
4.6364875 0.12275758 -0.16713855 37 37
4.5972066 0.25648728 -0.49546036 37 12
4.6086841 0.25632209 -0.43209958 54 16
4.6143064 0.25582764 -0.36811543 40 20
4.6239734 0.2563647 -0.30438998 41 24
4.6478014 0.25606123 -0.24124834 39 28
4.6557488 0.25568494 -0.17692871 43 36
4.6578102 0.25498295 -0.11231378 32 44
4.6789017 0.25614002 -0.047071379 40 52
4.6647229 0.40649652 -0.18580256 38 35
4.5776997 -0.021561636 -0.34866315 38 21
4.5871115 -0.022409892 -0.28553107 50 25
4.513761 -0.28813666 -0.45498136 23 14
4.5956488 -0.022454593 -0.22220404 17 30
4.5196815 -0.28931162 -0.39150468 28 18
4.5983024 -0.023271067 -0.15852058 35 38
4.5196152 -0.29009941 -0.32915452 17 22
4.6386204 0.11228238 -0.1036723 25 45
4.5287447 -0.29069299 -0.26668659 40 26
4.5605879 -0.024659002 -0.56757194 38 9
4.6596313 0.11197482 -0.039553687 38 53
4.5711503 -0.024719838 -0.4758589 37 13
4.6497555 0.11092662 0.024969431 24 61
4.5723691 -0.025524909 -0.41204026 30 17
4.573153 -0.16261147 -0.21330708 20 31
4.5706925 -0.16252254 -0.1497332 31 39
4.6150355 -0.029000124 -0.095117733 14 46
4.5407472 -0.1622337 -0.54148847 30 10
4.6259165 -0.029072292 -0.03124354 17 54
4.6590271 0.10707876 -0.23343891 20 29
4.6318917 0.10645823 -0.16695707 39 37
4.6030378 0.24069862 -0.49599949 29 12
4.6095505 0.24023323 -0.43209958 41 16
4.6151719 0.23971915 -0.36811543 28 20
4.6248403 0.24022248 -0.30438998 36 24
4.6436806 0.23957796 -0.24098752 34 28
4.6516232 0.23917463 -0.17673764 37 36
4.6586719 0.23872261 -0.11231378 17 44
4.6747746 0.23954962 -0.047020763 42 52
4.6742492 0.2534301 0.017024776 41 60
4.6710916 0.39062914 -0.18600233 40 35
4.5726113 -0.037498023 -0.3482804 23 21
4.5870051 -0.038421765 -0.28553107 41 25
4.5077653 -0.30355254 -0.45447698 23 14
4.5955424 -0.038496263 -0.22220404 20 30
4.5136747 -0.3047469 -0.39107066 21 18
4.5981932 -0.039321996 -0.15852058 28 38
4.5135994 -0.30553311 -0.3287892 17 22
4.633986 0.09598694 -0.10355973 29 45
4.5277019 -0.30649948 -0.26668659 37 26
4.5604739 -0.040578272 -0.56757194 31 9
4.6499963 0.095504805 -0.039468165 37 53
4.5660634 -0.040629979 -0.47533712 30 13
4.6501141 0.09469527 0.024969431 23 61
4.5672722 -0.041438367 -0.41158795 30 17
4.5675673 -0.17837593 -0.21307242 21 31
4.5750914 -0.17867419 -0.14989811 29 39
4.6099067 -0.045058824 -0.095013894 20 46
4.5401525 -0.17808287 -0.54148847 27 10
4.6157875 -0.045118354 -0.031175472 23 54
4.6144385 0.089944437 -0.23117006 32 29
4.6322355 0.090289272 -0.16695707 38 37
4.5939202 0.22414391 -0.49492121 30 12
4.6617818 0.50291425 -0.25931677 97 27
4.6053891 0.22389913 -0.4316299 32 16
4.611002 0.22336601 -0.36771527 23 20
4.620667 0.22383532 -0.30405948 33 24
4.6444883 0.22336701 -0.24098752 25 28
4.6524296 0.22293597 -0.17673764 39 36
4.6594763 0.22245936 -0.11231378 17 44
4.6755824 0.22323015 -0.047020763 20 52
4.680099 0.23736621 0.017043103 42 60
4.6674471 0.37392098 -0.18580256 39 35
4.6745634 0.37449354 -0.12104216 97 43
4.5724525 -0.053459186 -0.3482804 25 21
4.5818534 -0.054372191 -0.285218 27 25
4.5066776 -0.31928572 -0.45447698 20 14
4.5903859 -0.054476444 -0.22196066 23 30
4.5076151 -0.32014364 -0.39063662 27 18
4.5930314 -0.055310529 -0.15834695 29 38
4.5075316 -0.32092842 -0.32842389 17 22
4.6292949 0.079725236 -0.10344716 23 45
4.5216269 -0.3219437 -0.26639095 25 26
4.5603046 -0.056497052 -0.56757194 28 9
4.6453028 0.079188071 -0.039425407 34 53
4.5658941 -0.056568272 -0.47533712 25 13
4.6504159 0.078462765 0.024969431 26 61
4.5671 -0.05738087 -0.41158795 27 17
4.5669165 -0.19431864 -0.21307242 28 31
4.5644541 -0.19421241 -0.14956829 31 39
4.6047235 -0.06108208 -0.094910048 28 46
4.5395036 -0.19392988 -0.54148847 35 10
4.615602 -0.061230183 -0.031175472 23 54
4.6197162 0.073915794 -0.23142213 31 29
4.62253 0.073960483 -0.1665941 37 37
4.5996408 0.20833227 -0.49546036 28 12
4.6436486 0.48455468 -0.25820383 97 27
4.6011696 0.207597 -0.43116021 34 16
4.6067743 0.20704487 -0.36731514 25 20
4.6164365 0.20748024 -0.30372897 28 24
4.6402512 0.20693031 -0.24072671 23 28
4.6531801 0.20669462 -0.17673764 28 36
4.655231 0.20597188 -0.1121925 28 44
4.6663432 0.20646483 -0.046919532 28 52
4.6709104 0.22055537 0.017006449 41 60
4.6687241 0.35762626 -0.18580256 40 35
4.6658754 0.35740703 -0.12078214 37 43
4.572238 -0.069419697 -0.3482804 34 21
4.5766459 -0.070287138 -0.2849049 37 25
4.5005751 -0.33464199 -0.45397255 23 14
4.5851746 -0.070421115 -0.22171728 29 30
4.501503 -0.33550185 -0.39020258 32 18
4.5928106 -0.071342863 -0.15834695 37 38
4.5063839 -0.33666065 -0.32842389 20 22
4.6295447 0.063565493 -0.10344716 30 45
4.5600796 -0.072415136 -0.56757194 33 9
4.6455507 0.062972449 -0.039425407 34 53
4.570641 -0.072586581 -0.4758589 25 13
4.6456623 0.062162992 0.024942379 40 61
4.5668716 -0.073322676 -0.41158795 33 17
4.5612211 -0.21002628 -0.21283774 31 31
4.6044822 -0.077155188 -0.094910048 35 46
4.5387993 -0.20977452 -0.54148847 27 10
4.6103616 -0.077255756 -0.031141438 36 54
4.614954 0.057727646 -0.23117006 30 29
4.617764 0.057762474 -0.16641265 46 37
4.6312695 0.46773505 -0.32216701 75 23
4.6003394 0.19227527 -0.49546036 25 12
4.660212 0.46985322 -0.25903854 39 27
4.6018667 0.19153467 -0.43116021 30 16
4.6074691 0.19096296 -0.36731514 25 20
4.6171327 0.19136459 -0.30372897 28 24
4.6409454 0.19073159 -0.24072671 28 28
4.64888 0.19024585 -0.17654657 33 36
4.655921 0.18972082 -0.1121925 33 44
4.6670351 0.19017498 -0.046919532 39 52
4.6766467 0.20446847 0.017024776 47 60
4.6649609 0.34096128 -0.18560277 39 35
4.6720796 0.34148404 -0.12091216 60 43
4.5669837 -0.085284546 -0.34789771 43 21
4.5763726 -0.086262174 -0.2849049 40 25
4.4993792 -0.3503499 -0.45397255 25 14
4.5849009 -0.086425923 -0.22171728 34 30
4.5003042 -0.35121298 -0.39020258 48 18
4.5875373 -0.087277517 -0.15817332 52 38
4.5002103 -0.35199586 -0.32805854 28 22
4.6297383 0.047404978 -0.10344716 46 45
4.5597992 -0.088332348 -0.56757194 38 9
4.6457424 0.046756074 -0.039425407 50 53
4.5653877 -0.088442586 -0.47533712 28 13
4.6458511 0.045946222 0.024942379 38 61
4.5616097 -0.089164525 -0.4111357 36 17
4.5604601 -0.22594662 -0.21283774 39 31
4.6041846 -0.093227364 -0.094910048 46 46
4.5330811 -0.22536717 -0.54089206 28 10
4.6101336 0.041573651 -0.23091796 35 29
4.6179376 0.04164312 -0.16641265 53 37
4.6279101 0.45107934 -0.3218191 97 23
4.5960155 0.17602508 -0.49492121 28 12
4.6469183 0.45212433 -0.25820383 45 27
4.607481 0.17566021 -0.4316299 35 16
4.6650519 0.4530772 -0.19412006 20 34
4.6081076 0.17487872 -0.36731514 32 20
4.6177726 0.17524663 -0.30372897 35 24
4.6365933 0.1743423 -0.24046591 35 28
4.6445236 0.17382962 -0.1763555 47 36
4.6515603 0.17328081 -0.1120712 46 44
4.6676707 0.17388283 -0.046919532 49 52
4.6723356 0.18794113 0.017006449 48 60
4.6816373 0.18831636 0.081965141 54 68
4.661139 0.32432693 -0.18540297 44 35
4.6632705 0.324476 -0.12065212 58 43
4.5666585 -0.10122576 -0.34789771 34 21
4.5760436 -0.10223617 -0.2849049 43 25
4.4981289 -0.36605355 -0.45397255 56 14
4.5795779 -0.10231638 -0.2214739 51 30
4.4990511 -0.36691985 -0.39020258 46 18
4.5822086 -0.10317624 -0.15799968 49 38
4.5039244 -0.36811271 -0.32842389 34 22
4.6298761 0.031243889 -0.10344716 53 45
4.5545025 -0.10413332 -0.56694961 55 9
4.6408777 0.030506834 -0.039382648 45 53
4.5650511 -0.10437822 -0.47533712 41 13
4.6409831 0.02969748 0.024915326 42 61
4.5612707 -0.10508697 -0.4111357 42 17
4.5496693 -0.24132927 -0.21236844 50 31
4.5938363 -0.10905761 -0.094702378 43 46
4.5273089 -0.24092245 -0.54029572 37 10
4.6102505 0.025481028 -0.23091796 39 29
4.6230512 0.025550289 -0.1665941 49 37
4.6860919 0.30142489 -0.056118611 96 51
4.6344223 0.43539155 -0.32216701 97 23
4.5916348 0.15980746 -0.49438211 32 12
4.6484685 0.43590081 -0.25820383 50 27
4.5981169 0.15923031 -0.43069056 41 16
4.6666045 0.43679038 -0.19412006 96 34
4.6086898 0.15879238 -0.36731514 38 20
4.6133695 0.15895416 -0.30339846 38 24
4.6321836 0.15798573 -0.24020509 41 28
4.6451015 0.15761615 -0.1763555 46 36
4.6471405 0.15687357 -0.11194991 49 44
4.6632524 0.15741931 -0.04686892 46 52
4.6679678 0.17144641 0.016988123 47 60
4.6622834 0.17123698 0.081612602 46 68
4.6622429 0.30805457 -0.18540297 44 35
4.6643748 0.30819616 -0.12065212 56 43
4.566277 -0.11716577 -0.34789771 49 21
