# .PCD v0.7 - Point Cloud Data file format
VERSION 0.7
FIELDS x y z intensity ring
SIZE 4 4 4 4 2
TYPE F F F F U
COUNT 1 1 1 1 1
WIDTH 1201
HEIGHT 1
VIEWPOINT 0 0 0 1 0 0 0
POINTS 1201
DATA ascii
4.5742221 -0.65590084 -0.031209508 33 54
4.5791597 -0.65661061 0.032845069 41 62
4.5957217 -0.52226406 -0.23167422 43 29
4.6034851 -0.52314723 -0.16695707 39 37
4.5995054 -0.38757789 -0.43209958 52 16
4.6149378 -0.38968766 -0.36891568 47 20
4.6196237 -0.39008281 -0.30472049 48 24
4.6382065 -0.39328036 -0.24124834 42 28
4.6510015 -0.39518142 -0.17711976 42 36
4.6529474 -0.39616445 -0.11243507 48 44
4.6690149 -0.39753065 -0.047071379 41 52
4.6858773 -0.24718699 -0.18620212 43 35
4.5210938 -0.79365695 -0.086650133 45 47
4.5350823 -0.65916324 -0.34904587 39 21
4.5393515 -0.66059428 -0.28553107 35 25
4.4248619 -0.91251791 -0.45447698 20 14
4.5477991 -0.66182673 -0.22220404 38 30
4.4305549 -0.91450328 -0.39107066 43 18
4.5552573 -0.66372675 -0.15869419 40 38
4.4352565 -0.91628504 -0.32915452 20 22
4.6140695 -0.53495842 -0.10378487 39 45
4.4344406 -0.91611576 -0.26609528 40 26
4.512773 -0.65913016 -0.56757194 46 9
4.6249018 -0.53703362 -0.039510928 36 53
4.4277081 -0.91552508 -0.20289758 37 32
4.5232244 -0.66066045 -0.4758589 36 13
4.6249084 -0.53785259 0.024996484 36 61
4.5243182 -0.66162723 -0.41204026 36 17
4.5060163 -0.79748881 -0.21330708 37 31
4.5035925 -0.79705834 -0.1497332 31 39
4.5611401 -0.67027807 -0.095013894 29 46
4.4837532 -0.79434228 -0.54268116 39 10
4.5669584 -0.67113513 -0.031175472 33 54
4.5718942 -0.67186224 0.032809291 40 62
4.5889106 -0.53772122 -0.23142213 28 29
4.5966682 -0.53863114 -0.16677558 39 37
4.5917401 -0.40226355 -0.49599949 43 12
4.6030836 -0.40406549 -0.43256927 42 16
4.6036196 -0.40492216 -0.36811543 41 20
4.6132641 -0.40576935 -0.30438998 39 24
4.6318312 -0.40902966 -0.24098752 40 28
4.6446171 -0.41097426 -0.17692871 38 36
4.6465573 -0.41196302 -0.11231378 33 44
4.6576381 -0.41294417 -0.046970148 40 52
4.6640306 -0.39956668 0.017024776 35 60
4.6849861 -0.26354223 -0.18620212 42 35
4.6771483 -0.26310402 -0.12091216 12 43
4.527823 -0.67425358 -0.34866315 34 21
4.5370178 -0.67643553 -0.28553107 28 25
4.426517 -0.92898369 -0.45498136 23 14
4.5405216 -0.67695922 -0.22196066 17 30
4.4273357 -0.92996323 -0.39107066 31 18
4.5529132 -0.67962354 -0.15869419 17 38
4.4271517 -0.93073136 -0.3287892 17 22
4.6022472 -0.54987401 -0.10355973 17 45
4.4263315 -0.9305582 -0.26579961 34 26
4.505538 -0.67414272 -0.56694961 34 9
4.6180344 -0.5525797 -0.039468165 35 53
4.5159721 -0.67570782 -0.47533712 29 13
4.6130743 -0.55280226 0.024942379 14 61
4.5170565 -0.67667651 -0.41158795 43 17
4.4933758 -0.811432 -0.21283774 17 31
4.4958653 -0.81188303 -0.14956829 20 39
4.558773 -0.68619537 -0.095013894 32 46
4.4711843 -0.80821693 -0.54148847 29 10
4.5645881 -0.68707269 -0.031175472 14 54
4.5919633 -0.55433524 -0.23167422 17 29
4.5947599 -0.55467314 -0.16677558 37 37
4.5952587 -0.41873977 -0.49653864 30 12
4.6714358 -0.15030229 -0.25848207 107 27
4.601645 -0.42013079 -0.43256927 35 16
4.6021781 -0.42098933 -0.36811543 28 20
4.6118197 -0.42187017 -0.30438998 35 24
4.6353478 -0.42565131 -0.24124834 25 28
4.6431546 -0.42718452 -0.17692871 39 36
4.6401129 -0.42772177 -0.1121925 23 44
4.656168 -0.42919981 -0.046970148 14 52
4.6626072 -0.41584474 0.017024776 28 60
4.67905 -0.27959797 -0.18600233 39 35
4.68119 -0.2797251 -0.12104216 91 43
4.5254416 -0.69005454 -0.34866315 20 21
4.5296955 -0.69151372 -0.285218 24 25
4.4183831 -0.94338673 -0.45447698 17 14
4.5331945 -0.69204915 -0.22171728 17 30
4.4191918 -0.94436681 -0.39063662 24 18
4.5455737 -0.69475532 -0.15852058 17 38
4.4238758 -0.94617939 -0.3287892 17 22
4.5953383 -0.56532466 -0.10344716 20 45
4.4230566 -0.94600338 -0.26579961 17 26
4.5080609 -0.69061893 -0.56757194 30 9
4.611115 -0.56808436 -0.039425407 29 53
4.513586 -0.6914674 -0.47533712 23 13
4.6111169 -0.56890154 0.024942379 28 61
4.5146675 -0.69243991 -0.41158795 30 17
4.4905162 -0.82711178 -0.21283774 25 31
4.48809 -0.82666349 -0.14940338 23 39
4.5514092 -0.70134127 -0.094910048 25 46
4.473217 -0.82472235 -0.54208481 20 10
4.5621614 -0.70300192 -0.031175472 20 54
4.58009 -0.56912816 -0.23117006 20 29
4.5878372 -0.57009172 -0.1665941 33 37
4.5838714 -0.43384209 -0.49546036 30 12
4.6858506 -0.16713302 -0.25931677 97 27
4.5902386 -0.43525231 -0.4316299 31 16
4.6006808 -0.43705139 -0.36811543 20 20
4.6103191 -0.43796587 -0.30438998 17 24
4.6238918 -0.44088227 -0.24072671 17 28
4.6366615 -0.44291499 -0.17673764 27 36
4.6385922 -0.44391614 -0.1121925 20 44
4.6496649 -0.44497451 -0.046919532 20 52
4.6561484 -0.43165678 0.017006449 39 60
4.6730604 -0.29561555 -0.18580256 39 35
4.6702085 -0.29543614 -0.12078214 36 43
4.5180798 -0.70507663 -0.3482804 23 21
4.5272541 -0.70732111 -0.285218 25 25
4.4102025 -0.9577443 -0.45397255 20 14
4.5307512 -0.70786875 -0.22171728 23 30
4.4110017 -0.95872498 -0.39020258 25 18
4.5381842 -0.70984429 -0.15834695 25 38
4.4156742 -0.9605518 -0.32842389 20 22
4.5933371 -0.58136189 -0.10344716 29 45
4.4099751 -0.95930707 -0.2652083 28 26
4.5007219 -0.70558065 -0.56694961 28 9
4.6041446 -0.58354753 -0.039382648 30 53
4.5111456 -0.70721853 -0.47533712 27 13
4.6041427 -0.5843637 0.024915326 40 61
4.5122228 -0.70819479 -0.41158795 30 17
4.4826937 -0.84185684 -0.21260308 30 31
4.4851775 -0.84232479 -0.14940338 29 39
4.5489335 -0.71722436 -0.094910048 33 46
4.4556751 -0.83757156 -0.54029572 36 10
4.5547414 -0.71814215 -0.031141438 23 54
4.573122 -0.5844785 -0.23091796 22 29
4.5858192 -0.58610278 -0.1665941 29 37
4.587276 -0.45032519 -0.49599949 29 12
4.6652846 -0.18271863 -0.25820383 97 27
4.5886917 -0.45127258 -0.4316299 27 16
4.5941668 -0.45262 -0.36771527 23 20
4.6087618 -0.4540562 -0.30438998 25 24
4.6223245 -0.45701998 -0.24072671 23 28
4.6350875 -0.4590973 -0.17673764 23 36
4.6370139 -0.46010515 -0.1121925 29 44
4.6480827 -0.46120217 -0.046919532 23 52
4.654613 -0.44790715 0.017006449 41 60
4.6589031 -0.44831944 0.081877001 25 68
4.6719999 -0.31192577 -0.18580256 39 35
4.6741366 -0.31206769 -0.12091216 45 43
4.5155916 -0.72084343 -0.3482804 29 21
4.5198302 -0.72233063 -0.2849049 34 25
4.4068322 -0.97313285 -0.45397255 20 14
4.5282526 -0.72367966 -0.22171728 33 30
4.4076285 -0.97411633 -0.39020258 34 18
4.530745 -0.72488987 -0.15817332 34 38
4.4122944 -0.97595954 -0.32842389 23 22
4.5863223 -0.59674644 -0.1033346 46 45
4.4065995 -0.97469497 -0.2652083 34 26
4.50313 -0.72207403 -0.56757194 32 9
4.6020799 -0.5996154 -0.039382648 37 53
4.5086489 -0.72296101 -0.47533712 20 13
4.6020746 -0.60043162 0.024915326 36 61
4.504807 -0.72315019 -0.4111357 33 17
4.4797277 -0.85749924 -0.21260308 39 31
4.4773026 -0.85703355 -0.1492385 38 39
4.5414677 -0.73230124 -0.094806217 42 46
4.4527249 -0.85311973 -0.54029572 29 10
4.552207 -0.7340368 -0.031141438 32 54
4.566103 -0.59978724 -0.23066585 29 29
4.5787921 -0.60145551 -0.16641265 41 37
4.6655836 -0.19822726 -0.32321075 36 23
4.5856762 -0.466335 -0.49599949 28 12
4.6795816 -0.19963215 -0.25903854 26 27
4.5920405 -0.46779132 -0.43209958 29 16
4.597517 -0.46915925 -0.36811543 30 20
4.6021857 -0.46963507 -0.30405948 31 24
4.6157341 -0.47264409 -0.24046591 33 28
4.6284857 -0.47476467 -0.17654657 31 36
4.6304073 -0.47577822 -0.1120712 43 44
4.6414714 -0.47691378 -0.04686892 37 52
4.6480465 -0.46365634 0.016988123 44 60
4.6523356 -0.46408367 0.081788868 43 68
4.6708822 -0.32823217 -0.18580256 37 35
4.6730189 -0.32838157 -0.12091216 45 43
4.5081282 -0.73579669 -0.34789771 33 21
4.5123577 -0.73729706 -0.28459185 39 25
4.3985562 -0.98741609 -0.45346814 25 14
4.5207705 -0.7386747 -0.2214739 48 30
4.3993421 -0.98839992 -0.38976851 43 18
4.5232553 -0.7398923 -0.15799968 49 38
4.3991323 -0.98915941 -0.32769325 32 22
4.5842113 -0.61275208 -0.1033346 50 45
4.4956861 -0.73698407 -0.56694961 37 9
4.5950027 -0.61501205 -0.039339885 44 53
4.5060978 -0.73869473 -0.47533712 28 13
4.594995 -0.6158275 0.024888273 49 61
4.5022554 -0.73887044 -0.4111357 38 17
4.471806 -0.8721723 -0.21236844 49 31
4.5339518 -0.74733472 -0.094702378 42 46
4.4497194 -0.86865741 -0.54029572 35 10
4.5446839 -0.7491076 -0.031107401 36 54
4.5639806 -0.61572218 -0.23066585 36 29
4.576664 -0.61743474 -0.16641265 50 37
4.6824374 -0.35368711 -0.056118611 96 51
4.6548977 -0.21405943 -0.32251489 89 23
4.5741334 -0.4813 -0.49492121 31 12
4.6688819 -0.21551107 -0.25848207 55 27
4.5854292 -0.48329642 -0.4316299 34 16
4.6869698 -0.21715534 -0.19432858 90 34
4.5908952 -0.48468205 -0.36771527 38 20
4.5955563 -0.48517364 -0.30372897 41 24
4.6140561 -0.48875314 -0.24046591 39 28
4.6218319 -0.49039161 -0.1763555 42 36
4.6287184 -0.49193844 -0.1120712 47 44
4.6397781 -0.49311259 -0.04686892 42 52
4.6414266 -0.47936517 0.016969798 49 60
4.6407413 -0.47929451 0.081612602 43 68
4.6647253 -0.34416869 -0.18560277 51 35
4.6668587 -0.34432536 -0.12078214 57 43
4.5055327 -0.7515285 -0.34789771 44 21
4.5097561 -0.75304359 -0.28459185 49 25
4.3950825 -1.0027639 -0.45346814 34 14
4.5132394 -0.75362647 -0.22123054 42 30
4.3910098 -1.0026377 -0.3893345 43 18
4.5157175 -0.7548514 -0.15782607 47 38
4.3907928 -1.0033942 -0.32732791 45 22
4.5820451 -0.62875026 -0.1033346 54 45
4.4881935 -0.75185114 -0.56632727 52 9
4.5878744 -0.63036668 -0.039297123 42 53
4.4985876 -0.75359613 -0.47481531 37 13
4.5878644 -0.63118124 0.02486122 43 61
4.4947386 -0.75375646 -0.41068339 41 17
4.4638362 -0.88680035 -0.21213377 49 31
4.5263858 -0.76232463 -0.094598532 48 46
4.441792 -0.88321358 -0.53969944 42 10
4.5618038 -0.63164967 -0.23066585 54 29
4.5695314 -0.63272065 -0.16623117 59 37
4.6761899 -0.36963743 -0.056058399 41 51
4.6541219 -0.23030676 -0.32251489 96 23
4.5773673 -0.49780062 -0.49546036 40 12
4.6681013 -0.2318072 -0.25848207 48 27
4.5787659 -0.49876118 -0.43116021 37 16
4.6811934 -0.2332688 -0.19412006 96 34
4.5842204 -0.50016427 -0.36731514 53 20
4.5938349 -0.50121218 -0.30372897 38 24
4.6073585 -0.50431353 -0.24020509 44 28
4.6200919 -0.50652182 -0.1763555 45 36
4.622004 -0.50754762 -0.11194991 46 44
4.633059 -0.50876033 -0.046818305 43 52
4.6397252 -0.49556386 0.016969798 43 60
4.6440115 -0.49602118 0.081700727 40 68
4.6634955 -0.36044952 -0.18560277 44 35
4.6622176 -0.49878666 0.14702912 12 72
4.6606445 -0.36023018 -0.12065212 57 43
4.4979672 -0.76641202 -0.34751499 48 21
4.5021811 -0.76794016 -0.28427875 44 25
4.381866 -1.0158446 -0.45245934 42 14
4.5056581 -0.76853454 -0.22098716 42 30
4.3874836 -1.017959 -0.3893345 43 18
4.5130548 -0.77060962 -0.15782607 34 38
4.3872633 -1.0187149 -0.32732791 46 22
4.5748725 -0.64404339 -0.10322204 43 45
4.4806528 -0.76667494 -0.56570494 51 9
4.5806956 -0.64567912 -0.03925436 41 53
4.4910293 -0.76845425 -0.47429359 49 13
4.5806823 -0.64649266 0.024834167 42 61
4.4920797 -0.76944143 -0.41068339 48 17
4.4607134 -0.90237665 -0.21213377 52 31
4.5187712 -0.77727091 -0.094494693 42 46
4.4338174 -0.89772493 -0.53910303 48 10
4.5595713 -0.64756948 -0.23066585 46 29
4.5623479 -0.64796412 -0.16604969 40 37
4.6748714 -0.38595814 -0.056058399 42 51
4.6483088 -0.24629024 -0.32216701 96 23
4.5706615 -0.51322144 -0.49492121 52 12
4.667264 -0.24810049 -0.25848207 46 27
4.5720501 -0.51418531 -0.43069056 41 16
4.6803508 -0.24960779 -0.19412006 49 34
4.5774941 -0.51560587 -0.36691505 47 20
4.5870996 -0.51668668 -0.30339846 43 24
4.6006079 -0.51983309 -0.23994428 43 28
4.6083665 -0.5215233 -0.17597337 41 36
4.6152377 -0.52311599 -0.11182863 46 44
4.6312547 -0.52492958 -0.046818305 38 52
4.632997 -0.51120865 0.016951472 42 60
4.6273437 -0.51058555 0.081436329 17 68
4.6622095 -0.37672597 -0.18560277 40 35
4.6207099 -0.51067066 0.14576572 42 72
4.6593595 -0.37649667 -0.12065212 56 43
4.4903531 -0.78125185 -0.34713224 45 21
4.4994726 -0.78365099 -0.28427875 39 25
4.3831334 -1.0322783 -0.45296371 42 14
4.5029478 -0.78425747 -0.22098716 38 30
4.379056 -1.0321213 -0.38890046 43 18
4.505415 -0.78549832 -0.15765244 38 38
4.3739758 -1.0317254 -0.32659727 40 22
4.5627017 -0.65857935 -0.1029969 40 45
4.4779491 -0.78231066 -0.56570494 45 9
4.5784135 -0.66166478 -0.03925436 38 53
4.4834208 -0.78326863 -0.47377181 39 13
4.5783973 -0.66247833 0.024834167 40 61
4.4844613 -0.78425747 -0.41023108 37 17
4.4526443 -0.91693163 -0.2118991 48 31
4.5160303 -0.79303962 -0.094494693 41 46
4.4306564 -0.91319638 -0.53910303 46 10
4.5474005 -0.66204149 -0.23016168 41 29
4.5551133 -0.66316533 -0.16586821 39 37
4.6685147 -0.40184715 -0.055998191 38 51
4.6474209 -0.26251438 -0.32216701 95 23
4.5688419 -0.52917296 -0.49492121 43 12
4.6687717 -0.40269008 0.0089273537 32 59
4.6613851 -0.26411125 -0.25820383 45 27
4.5702276 -0.53014159 -0.43069056 43 16
4.6744633 -0.26566315 -0.19391158 43 34
4.580617 -0.53215569 -0.36731514 42 20
4.6717238 -0.26550904 -0.12888627 37 42
4.585268 -0.53269553 -0.30339846 42 24
4.5987654 -0.53588903 -0.23994428 42 28
4.6065173 -0.53760636 -0.17597337 35 36
4.6084189 -0.5386433 -0.11170734 43 44
4.6571264 -0.26794961 -0.38787636 66 19
4.6244283 -0.54051262 -0.046767689 38 52
4.6262164 -0.52681255 0.016933147 37 60
4.6205664 -0.52616984 0.081348196 41 68
4.6558871 -0.39257976 -0.18540297 40 35
4.613934 -0.52623111 0.1456078 42 72
4.6530352 -0.3923403 -0.12052211 55 43
4.4875989 -0.79692131 -0.34713224 31 21
4.4917974 -0.79847723 -0.28396568 37 25
4.3698297 -1.0452495 -0.4519549 45 14
4.4903493 -0.79821932 -0.22050039 34 30
4.3705831 -1.0462371 -0.38846642 43 18
4.4928069 -0.79946613 -0.15730518 14 38
4.5603747 -0.67450207 -0.1029969 32 45
4.4751911 -0.7979368 -0.56570494 37 9
4.5711308 -0.67690951 -0.039211605 23 53
4.4757643 -0.7980392 -0.47325 28 13
4.5711122 -0.6777221 0.024807116 39 61
4.4767947 -0.79902965 -0.4097788 31 17
4.5033941 -0.80703169 -0.094287015 37 46
4.4225841 -0.92763478 -0.53850669 40 10
4.5450616 -0.67791086 -0.23016168 23 29
4.5478292 -0.67832398 -0.16568674 34 37
4.6621032 -0.41769636 -0.055937976 37 51
4.6365175 -0.27814364 -0.32147118 43 23
4.5620317 -0.54452944 -0.49438211 35 12
4.6623578 -0.41853932 0.0089177545 38 59
4.6554513 -0.28008395 -0.2579256 39 27
4.5634065 -0.54550117 -0.43022087 36 16
4.6735077 -0.28197846 -0.19391158 33 34
4.5688338 -0.54695809 -0.36651492 36 20
4.6757584 -0.28211296 -0.12902501 95 42
4.5784273 -0.54810542 -0.30306798 31 24
4.5968671 -0.55193841 -0.23994428 28 28
4.5996523 -0.55308688 -0.17578229 39 36
4.6015477 -0.5541293 -0.11158605 26 44
4.6412425 -0.28330228 -0.3866238 54 19
4.6125855 -0.55545723 -0.046666462 17 52
4.6193833 -0.54237533 0.01691482 25 60
4.6137371 -0.54171306 0.081260063 17 68
4.6445346 -0.40795863 -0.1850034 39 35
4.6021423 -0.54116738 0.14529194 40 72
4.6466589 -0.40814447 -0.12039211 35 43
4.4847894 -0.81258112 -0.34713224 17 21
4.4840727 -0.81325936 -0.28365257 14 25
4.487536 -0.81388873 -0.22050039 17 30
4.3620658 -1.0603063 -0.38803235 43 18
4.4899888 -0.815144 -0.15730518 20 38
4.5530505 -0.68966746 -0.10288434 29 45
4.4723783 -0.81355327 -0.56570494 20 9
4.563796 -0.69211125 -0.039168842 17 53
4.4729509 -0.8136577 -0.47325 27 13
4.5637746 -0.69292289 0.024780063 30 61
4.4739785 -0.81465173 -0.4097788 25 17
4.4144645 -0.94202787 -0.53791028 65 10
4.5377312 -0.69301736 -0.22990958 20 29
4.5454335 -0.69419467 -0.16568674 20 37
4.6556387 -0.43350577 -0.05587776 28 51
4.635519 -0.29432645 -0.32147118 34 23
4.5601034 -0.56045055 -0.49438211 20 12
4.6608682 -0.43481141 0.0089177545 38 59
4.6544452 -0.29633281 -0.2579256 40 27
4.5614743 -0.56142706 -0.43022087 29 16
4.6675086 -0.29797491 -0.19370307 23 34
4.5619502 -0.56229389 -0.36611477 17 20
4.6647682 -0.29780152 -0.12874752 42 42
4.5715342 -0.56347406 -0.30273747 17 24
4.585001 -0.5667572 -0.23942265 20 28
4.5927358 -0.56852615 -0.17559123 17 36
4.5946245 -0.56957394 -0.11146475 23 44
4.6451979 -0.29981959 -0.3870413 37 19
4.6106186 -0.57155472 -0.046666462 20 52
4.6124978 -0.55789697 0.016896496 22 60
4.6118174 -0.55781478 0.081260063 20 68
4.6430821 -0.42416856 -0.1850034 38 35
4.6402278 -0.4239088 -0.12026209 28 43
4.4770236 -0.82732338 -0.34674951 17 21
4.4812059 -0.82890671 -0.28365257 20 25
4.4797568 -0.82863814 -0.22025703 23 30
4.3631725 -1.0767237 -0.38846642 42 18
4.4822035 -0.82990062 -0.15713157 23 38
4.5506153 -0.70555639 -0.10288434 32 45
4.4597559 -0.82734656 -0.56446028 23 9
4.5613527 -0.70803773 -0.039168842 20 53
4.4651947 -0.82835746 -0.47272822 20 13
4.4711075 -0.83026391 -0.4097788 23 17
4.4111495 -0.95743144 -0.53791028 63 10
4.5352845 -0.70885283 -0.22990958 23 29
4.5429831 -0.71005696 -0.16568674 25 37
4.6540971 -0.44975436 -0.05587776 31 51
4.6344633 -0.3105056 -0.32147118 24 23
4.5581193 -0.57636487 -0.49438211 25 12
4.6543446 -0.45059812 0.0089081544 38 59
4.6484013 -0.31224635 -0.25764737 35 27
4.5594864 -0.57734615 -0.43022087 23 16
4.6587472 -0.4510228 0.073771097 17 67
4.6664405 -0.3142657 -0.19370307 32 34
4.5649042 -0.57884103 -0.36651492 23 20
4.6686873 -0.31441575 -0.12888627 41 42
4.5695395 -0.57942826 -0.30273747 17 24
4.578042 -0.58212912 -0.23916186 23 28
4.5907226 -0.58455426 -0.17559123 23 36
4.5926085 -0.58560872 -0.11146475 31 44
4.6391516 -0.31569713 -0.3866238 37 19
4.6036358 -0.58701354 -0.046615846 23 52
4.6105223 -0.57399416 0.016896496 34 60
4.5999198 -0.57267547 0.081083789 26 68
4.641573 -0.44037339 -0.1850034 31 35
4.6387196 -0.44010365 -0.12026209 28 43
4.6905832 -0.30683312 -0.064320102 12 50
4.4692101 -0.84202135 -0.34636679 25 21
4.4733825 -0.84361756 -0.28333953 28 25
4.4768372 -0.84427029 -0.22025703 33 30
4.3497252 -1.0895187 -0.38759831 40 18
4.4743686 -0.84461266 -0.15695794 28 38
4.5431886 -0.72065306 -0.10277178 48 45
4.4519663 -0.84198523 -0.56383789 29 9
4.5539155 -0.72317076 -0.03912608 31 53
4.462276 -0.84393889 -0.47272822 20 13
4.4632902 -0.84493804 -0.40932652 32 17
4.4029336 -0.97175068 -0.537314 57 10
4.5278516 -0.72389078 -0.22965749 27 29
4.5355425 -0.72512126 -0.16550528 33 37
4.6475239 -0.46550089 -0.055817544 25 51
4.6333513 -0.32668102 -0.32147118 34 23
4.5560789 -0.59227216 -0.49438211 25 12
4.6527438 -0.46684209 0.0089081544 39 59
4.6472836 -0.32847035 -0.25764737 28 27
4.5623803 -0.59390026 -0.43069056 25 16
4.6571445 -0.46728212 0.073771097 56 67
4.6653152 -0.33055273 -0.19370307 33 34
4.5579138 -0.59412831 -0.36611477 29 20
4.6625757 -0.3303602 -0.12874752 46 42
4.5674891 -0.59537536 -0.30273747 28 24
4.5759821 -0.59810591 -0.23916186 33 28
4.5836997 -0.59992743 -0.17540015 28 36
4.6421733 -0.33136919 -0.45197931 46 15
4.5855794 -0.60098732 -0.11134347 47 44
4.6181417 -0.33047777 -0.38495371 43 19
4.6015582 -0.60307962 -0.046615846 29 52
4.6084905 -0.59008437 0.016896496 39 60
4.5929341 -0.58809429 0.080995657 28 68
4.6350355 -0.45608529 -0.18480362 33 35
4.6321807 -0.45580536 -0.12013207 44 43
4.684495 -0.32286355 -0.064251162 95 50
4.6978722 -0.18586649 -0.20288889 96 33
4.4662437 -0.85761666 -0.34636679 33 21
4.4704103 -0.85922742 -0.28333953 37 25
4.4689589 -0.85894793 -0.22001365 46 30
4.3458958 -1.1046954 -0.38759831 35 18
4.4664865 -0.85928029 -0.15678431 33 38
4.5406456 -0.73650742 -0.10277178 53 45
4.4538713 -0.85846108 -0.56446028 33 9
4.5513639 -0.73906249 -0.03912608 31 53
4.454421 -0.85856724 -0.47220647 28 13
4.4603138 -0.86051273 -0.40932652 34 17
4.5203691 -0.73888534 -0.22940537 34 29
4.5280523 -0.74014223 -0.16532379 38 37
4.6458707 -0.48172092 -0.055817544 37 51
4.6272073 -0.34248713 -0.32112324 38 23
4.5490565 -0.6075148 -0.49384299 31 12
4.646112 -0.48256552 0.0088985553 38 59
4.6461086 -0.34469044 -0.25764737 34 27
4.5504112 -0.60850388 -0.42975119 29 16
4.6455393 -0.48250622 0.073612273 81 67
4.6641326 -0.34683573 -0.19370307 34 34
4.5508718 -0.60937393 -0.36571464 38 20
4.6613936 -0.34663364 -0.12874752 49 42
4.5604382 -0.6106537 -0.302407 36 24
4.5689173 -0.61341155 -0.23890105 37 28
4.5815778 -0.61592394 -0.17540015 36 36
4.6409883 -0.3475714 -0.45197931 96 15
4.5834537 -0.61699039 -0.11134347 47 44
4.6219282 -0.34696618 -0.38537121 37 19
4.5994248 -0.61913842 -0.046615846 41 52
4.6014452 -0.60551566 0.016878169 44 60
4.5908537 -0.60412306 0.080995657 33 68
4.6284447 -0.47175688 -0.18460383 31 35
4.6305614 -0.47197187 -0.12013207 52 43
4.6783528 -0.33885518 -0.064182222 89 50
4.692204 -0.20205307 -0.20267166 96 33
4.4583302 -0.87224263 -0.34598407 44 21
4.4624877 -0.87386614 -0.28302643 48 25
4.4610329 -0.87358075 -0.21977027 46 30
4.5331149 -0.75153452 -0.10265921 46 45
4.4508481 -0.87400275 -0.56446028 37 9
4.5438237 -0.75412595 -0.039083317 39 53
4.4513974 -0.87411082 -0.47220647 37 13
4.4523973 -0.87511474 -0.40887421 48 17
4.5177627 -0.75465983 -0.22940537 47 29
4.5205135 -0.75511968 -0.16514231 49 37
4.6391897 -0.49740389 -0.055757336 41 51
4.6259837 -0.35863698 -0.32112324 40 23
4.5469089 -0.62339026 -0.49384299 40 12
4.6443996 -0.49878049 0.0088985553 38 59
4.6398993 -0.36052239 -0.25736913 45 27
4.5433273 -0.62370759 -0.4292815 36 16
4.6388559 -0.49818709 0.073532872 39 67
4.6579127 -0.36272943 -0.19349456 39 34
4.5487175 -0.6252557 -0.36571464 51 20
4.6551723 -0.36251763 -0.12860879 48 42
4.558279 -0.62656885 -0.302407 38 24
4.5667481 -0.62935632 -0.23890105 43 28
4.574451 -0.63123047 -0.17520911 45 36
4.6248636 -0.36261106 -0.45051819 98 15
4.5812726 -0.63298583 -0.11134347 49 44
4.6206889 -0.36309761 -0.38537121 41 19
4.5922837 -0.63450593 -0.046565231 45 52
4.5893931 -0.62023586 0.016841516 44 60
4.62677 -0.48791033 -0.18460383 52 35
4.6288862 -0.48813272 -0.12013207 57 43
4.6771421 -0.35518357 -0.064182222 45 50
4.6914701 -0.2184307 -0.20267166 71 33
4.4503694 -0.88682377 -0.34560135 43 21
4.4545159 -0.88845992 -0.28271335 46 25
4.4530592 -0.88816881 -0.21952687 48 30
4.5255356 -0.76651818 -0.10254665 43 45
4.4380412 -0.88758451 -0.56321561 36 9
4.4434423 -0.88866681 -0.47168469 47 13
4.4444332 -0.88967204 -0.40842193 47 17
4.5101786 -0.76958472 -0.22915331 44 29
4.5129242 -0.77005363 -0.16496085 40 37
4.6374249 -0.51359463 -0.055757336 46 51
4.6147604 -0.37398249 -0.32042745 46 23
4.5397816 -0.63856626 -0.49330384 54 12
4.6376605 -0.51443994 0.0088889562 38 59
4.6336365 -0.37631524 -0.2570909 48 27
4.5411224 -0.63956296 -0.4292815 41 16
4.6420574 -0.51492614 0.073612273 33 67
4.6566181 -0.37898636 -0.19349456 40 34
4.5465069 -0.64112991 -0.36571464 44 20
4.6488967 -0.37836242 -0.12847006 47 42
4.5511231 -0.64178032 -0.30207649 43 24
4.5595789 -0.64459503 -0.23864023 43 28
4.5672722 -0.64649481 -0.17501803 41 36
4.6235695 -0.37875268 -0.45051819 97 15
4.5740862 -0.64827281 -0.11122219 48 44
4.6144276 -0.37881985 -0.38495371 40 19
4.5850897 -0.64983106 -0.046514615 36 52
4.5872006 -0.63625205 0.016841516 43 60
4.6200714 -0.50351816 -0.18440403 39 35
4.6221843 -0.5037477 -0.12000205 58 43
4.6708899 -0.37111458 -0.064113289 38 50
4.6713305 -0.37114936 0.00081157812 94 58
4.6856899 -0.23455988 -0.20245443 79 33
4.4472466 -0.90235305 -0.34560135 46 21
4.4464974 -0.90300882 -0.28240025 44 25
4.4499316 -0.90370744 -0.21952687 40 30
4.5179067 -0.78145796 -0.10243408 41 45
4.434916 -0.90307081 -0.56321561 35 9
4.435441 -0.90317792 -0.47116292 46 13
4.4413004 -0.90518051 -0.40842193 46 17
4.5025449 -0.78446579 -0.22890121 40 29
4.5052867 -0.78494376 -0.16477937 28 37
4.6306362 -0.52921313 -0.055697124 34 51
4.6183977 -0.39050612 -0.32077536 47 23
4.5326052 -0.65370023 -0.49276468 43 12
4.6308689 -0.53005838 0.008879357 38 59
4.6273198 -0.39206871 -0.25681266 47 27
4.5339355 -0.65469968 -0.42881188 43 16
4.6302977 -0.52999324 0.073453456 38 67
4.6453114 -0.39439923 -0.19307755 39 34
4.5343757 -0.65557116 -0.36491442 43 20
4.6475477 -0.39458781 -0.12847006 45 42
4.5439177 -0.65694958 -0.30174601 41 24
4.5573015 -0.66050702 -0.23864023 45 28
4.5600429 -0.66171664 -0.17482695 30 36
4.6172605 -0.3944689 -0.45003113 97 15
4.5668492 -0.6635173 -0.11110089 48 44
4.6130776 -0.39492491 -0.38495371 45 19
4.5778461 -0.66511375 -0.046464 38 52
4.5800014 -0.65155679 0.016823189 42 60
4.608356 -0.5185284 -0.18400447 37 35
4.6154308 -0.51932192 -0.11987206 56 43
4.6645832 -0.38700625 -0.064044349 40 50
4.6700063 -0.38745308 0.00081157812 97 58
4.6798539 -0.25065139 -0.2022372 39 33
4.6822205 -0.25077623 -0.13728492 97 41
4.4391875 -0.91686118 -0.3452186 31 21
4.4384317 -0.9175126 -0.28208721 36 25
4.4418597 -0.91822243 -0.21928352 37 30
4.5151515 -0.79722357 -0.10243408 41 45
4.4268785 -0.91753733 -0.56259328 31 9
4.427392 -0.91764396 -0.47064114 36 13
4.4283628 -0.91865182 -0.40751734 31 17
4.4997792 -0.80017781 -0.22890121 37 29
4.5025191 -0.80066532 -0.16477937 34 37
4.6287608 -0.54537386 -0.055697124 25 51
4.6070685 -0.40575555 -0.32007954 43 23
4.5253787 -0.66879189 -0.49222562 43 12
4.6289907 -0.54621989 0.008879357 37 59
4.6259232 -0.40821871 -0.25681266 40 27
4.5316229 -0.67052209 -0.42881188 33 16
4.6234546 -0.54556859 0.073374048 30 67
4.6389298 -0.41017482 -0.19286904 32 34
4.5320597 -0.67139506 -0.36491442 40 20
4.6411633 -0.41037101 -0.12833132 40 42
4.5415974 -0.6728068 -0.30174601 28 24
4.5500293 -0.67567813 -0.23837942 40 28
4.5527635 -0.67689586 -0.17463589 36 36
4.6059418 -0.40970764 -0.44905707 41 15
4.5645046 -0.67945457 -0.11110089 34 44
4.6067066 -0.41058564 -0.38453618 45 19
4.5705509 -0.68035388 -0.046413388 25 52
4.572751 -0.66681916 0.016804865 39 60
4.6065178 -0.5346114 -0.18400447 37 35
4.6086245 -0.53485513 -0.11974204 52 43
4.6582222 -0.40285844 -0.063975409 34 50
4.6636434 -0.40332416 0.00081070542 39 58
4.6739626 -0.26670501 -0.20201999 35 33
4.6713371 -0.26655728 -0.13699 48 41
4.4310822 -0.93132418 -0.34483591 23 21
4.425436 -0.93094188 -0.281461 34 25
4.4337411 -0.93269199 -0.21904014 40 30
4.507422 -0.81209266 -0.10232152 38 45
4.4139404 -0.9309333 -0.56134856 49 9
4.4290271 -0.93412083 -0.47116292 14 13
4.4300008 -0.93513417 -0.40796962 23 17
4.4920449 -0.81498802 -0.22864911 25 29
4.4898639 -0.81459206 -0.1644164 20 37
4.6169019 -0.56032664 -0.055576693 31 51
4.6056242 -0.42183471 -0.32007954 37 23
4.5230165 -0.68458432 -0.49222562 28 12
4.6220918 -0.56177318 0.0088697569 33 59
4.6244698 -0.4243637 -0.25681266 29 27
4.524333 -0.68559116 -0.42834219 29 16
4.6165586 -0.56110263 0.07329464 20 67
4.6374698 -0.42636523 -0.19286904 21 34
4.5247612 -0.68646383 -0.36451429 25 20
4.6397028 -0.42656919 -0.12833132 32 42
4.5342884 -0.68790805 -0.3014155 17 24
4.5427065 -0.69080639 -0.23811863 31 28
4.5503726 -0.69278389 -0.17463589 20 36
4.5995278 -0.42532757 -0.44857001 37 15
4.5571637 -0.6946308 -0.1109796 35 44
4.6002841 -0.42620677 -0.38411865 39 19
4.5632057 -0.69555104 -0.046362773 23 52
4.5654507 -0.68203878 0.016786538 40 60
4.5996633 -0.55009633 -0.18380468 31 35
4.6017666 -0.55034715 -0.11961202 28 43
4.6567879 -0.4191162 -0.063975409 18 50
4.6622076 -0.41960084 0.00081070542 44 58
4.6617451 -0.41955948 0.065664947 34 66
4.6730037 -0.28301856 -0.20201999 41 33
4.6753674 -0.28315982 -0.13713747 56 41
4.4229298 -0.94574177 -0.34445316 20 21
4.4221597 -0.94638395 -0.281461 17 25
4.4106641 -0.9463352 -0.56134856 49 9
4.4208779 -0.94853044 -0.47064114 14 13
4.4218421 -0.94954497 -0.40751734 23 17
4.4842629 -0.82975405 -0.22839701 30 29
4.4869933 -0.83025962 -0.1644164 20 37
4.6099567 -0.57582128 -0.055516485 20 51
4.6041231 -0.43790877 -0.32007954 24 23
4.5156865 -0.69960785 -0.49168646 23 12
4.6151409 -0.57728505 0.0088601578 25 59
4.6179905 -0.44003287 -0.25653443 21 27
4.5219121 -0.70137984 -0.42834219 24 16
4.6145716 -0.57721406 0.07329464 17 67
4.6309795 -0.44207853 -0.19266053 21 34
4.5223374 -0.70225394 -0.36451429 23 20
4.6332092 -0.44229007 -0.12819257 28 42
4.5269289 -0.70296639 -0.301085 25 24
4.540267 -0.70665926 -0.23811863 25 28
4.5479264 -0.70866346 -0.17463589 20 36
4.5881076 -0.44043502 -0.44759589 36 15
4.5497723 -0.70976424 -0.11085831 33 44
4.5987687 -0.44226214 -0.38411865 27 19
4.56075 -0.71147543 -0.046362773 25 52
4.5927558 -0.56553996 -0.18360488 32 35
4.5948563 -0.56579787 -0.119482 28 43
4.6503181 -0.43490615 -0.063906468 19 50
4.6557355 -0.43540967 0.00080983271 39 58
4.6552734 -0.43536672 0.065594263 99 66
4.6670017 -0.29901326 -0.20180276 39 33
4.6693625 -0.29916263 -0.13699 57 41
4.4147301 -0.96011364 -0.34407043 25 21
4.4285808 -0.96394056 -0.28208721 23 25
4.3976407 -0.95960671 -0.56010389 41 9
4.4126825 -0.96289462 -0.47011939 20 13
4.4136357 -0.9639101 -0.40706503 25 17
4.4764328 -0.84447581 -0.22814493 25 29
4.4791584 -0.84499037 -0.16423495 25 37
4.6079187 -0.59190953 -0.055516485 24 51
4.6025667 -0.4539775 -0.32007954 29 23
4.513217 -0.7153663 -0.49168646 25 12
4.6081386 -0.5927552 0.0088505596 38 59
4.6164265 -0.45614994 -0.25653443 26 27
4.5145197 -0.7163803 -0.42787251 28 16
4.6026115 -0.5920462 0.073135823 31 67
4.6294084 -0.45824096 -0.19266053 31 34
4.5149355 -0.71725416 -0.36411414 30 20
4.6316376 -0.4584603 -0.12819257 32 42
4.524447 -0.71876407 -0.301085 25 24
4.6890259 -0.32671085 -0.072461195 98 49
4.5328412 -0.72171879 -0.23785782 27 28
4.5454249 -0.72453433 -0.17463589 25 36
4.5865426 -0.45644787 -0.44759589 30 15
4.5423312 -0.72485447 -0.11073703 39 44
4.5922379 -0.45782071 -0.38370115 26 19
4.5582385 -0.72739106 -0.046362773 25 52
4.590754 -0.58156824 -0.18360488 32 35
4.5928535 -0.58183348 -0.119482 31 43
4.6487718 -0.45113614 -0.063906468 22 50
4.6541872 -0.45165855 0.00080983271 38 58
4.6487489 -0.45113394 0.06552358 96 66
4.6659298 -0.31530228 -0.20180276 36 33
4.6633029 -0.3151269 -0.13684253 53 41
4.4113517 -0.97551799 -0.34407043 33 21
4.4008293 -0.97399294 -0.28052178 28 25
4.4092946 -0.97829193 -0.47011939 29 13
4.4053836 -0.97822952 -0.40661275 36 17
4.4734578 -0.86009634 -0.22814493 33 29
4.4712744 -0.85967624 -0.16405347 32 37
4.6008677 -0.60733789 -0.05545627 37 51
4.6009545 -0.47004065 -0.32007954 35 23
4.5106926 -0.73111606 -0.49168646 30 12
4.6060414 -0.60883701 0.0088505596 38 59
4.609839 -0.47175616 -0.25625619 31 27
4.5070772 -0.73133785 -0.42740282 32 16
4.5955601 -0.60745525 0.073056415 33 67
4.6228104 -0.4738912 -0.19245201 33 34
4.5124044 -0.73300987 -0.36411414 37 20
4.6250362 -0.47411808 -0.12805384 44 42
4.5219107 -0.73455298 -0.301085 32 24
4.6828704 -0.34271568 -0.07238353 100 49
4.5302949 -0.73753703 -0.23785782 35 28
4.5330057 -0.73879021 -0.17425376 35 36
4.5849214 -0.47245511 -0.44759589 38 15
4.5397735 -0.74070573 -0.11073703 47 44
4.5955691 -0.47435659 -0.38411865 30 19
4.5507369 -0.74249327 -0.046312157 31 52
4.5837412 -0.59694588 -0.18340509 36 35
4.5858374 -0.59721816 -0.11935199 53 43
4.6421943 -0.46686324 -0.063837536 35 50
4.6476068 -0.46740448 0.00080896006 44 58
4.6421714 -0.46686098 0.065452904 36 66
4.6598172 -0.33123729 -0.20158553 28 33
4.6655974 -0.47002581 0.13078734 5 71
4.6571889 -0.33105257 -0.13669507 57 41
4.4030561 -0.98981541 -0.34368771 38 21
4.4120069 -0.99263996 -0.281461 37 25
4.4010024 -0.99258143 -0.46959761 36 13
4.4019418 -0.9936012 -0.40661275 38 17
4.4128408 -0.86122006 -0.59904665 30 8
4.4655271 -0.87474579 -0.22789283 48 29
4.5987191 -0.62339419 -0.05545627 41 51
4.5943246 -0.48557675 -0.31973159 43 23
4.5081129 -0.74685687 -0.49168646 39 12
4.5989337 -0.62424052 0.0088409595 37 59
4.6032 -0.48732194 -0.25597796 43 27
4.5044975 -0.74706602 -0.42740282 41 16
4.5934119 -0.62349302 0.073056415 43 67
4.6211276 -0.49002498 -0.19245201 40 34
4.5049019 -0.74794102 -0.36371404 49 20
4.623353 -0.49025962 -0.12805384 47 42
4.5094757 -0.74869978 -0.30042401 39 24
4.6766605 -0.3586815 -0.072305858 97 49
4.5227671 -0.75252724 -0.237597 44 28
4.5303993 -0.75460887 -0.17425376 45 36
4.5832438 -0.48845661 -0.44759589 38 15
4.5322294 -0.7557264 -0.11061574 49 44
4.5889301 -0.48986918 -0.38370115 38 19
4.5481176 -0.75837374 -0.046312157 35 52
4.5816298 -0.61294246 -0.18340509 47 35
4.5787711 -0.61256105 -0.11922199 58 43
4.6405363 -0.48306471 -0.063837536 38 50
4.640974 -0.48311004 0.00080808747 45 58
4.6405134 -0.48306236 0.065452904 41 66
4.6586328 -0.3475011 -0.20158553 35 33
4.5744438 -0.47703004 0.12825871 100 71
4.6609893 -0.34767497 -0.13684253 52 41
4.3947153 -1.0040669 -0.34330499 52 21
4.3975105 -1.0079378 -0.46959761 52 13
4.388741 -1.0067307 -0.40570816 46 17
4.4098082 -0.87661856 -0.59904665 41 8
4.4624467 -0.89032811 -0.22789283 47 29
4.5915632 -0.6387558 -0.055396058 42 51
4.5876427 -0.50107223 -0.31938368 44 23
4.495676 -0.7609306 -0.49060819 52 12
4.591774 -0.63960195 0.0088313604 38 59
4.6014709 -0.50338715 -0.25597796 48 27
4.501862 -0.76278508 -0.42740282 38 16
4.6144238 -0.50561148 -0.19224352 41 34
4.502264 -0.7636615 -0.36371404 46 20
4.6166453 -0.50585365 -0.12791511 48 42
4.506835 -0.7644363 -0.30042401 43 24
4.6703968 -0.37460825 -0.072228201 44 49
4.5151901 -0.76747394 -0.23733619 46 28
4.6808529 -0.37626064 -0.0073205619 33 57
4.5178866 -0.76874322 -0.17387161 42 36
4.5765648 -0.50391036 -0.44710883 42 15
4.5246358 -0.77070343 -0.11049444 51 44
4.5822392 -0.50534123 -0.38328362 41 19
4.5405135 -0.77340609 -0.046261542 35 52
4.5794621 -0.6289317 -0.18340509 47 35
4.5766048 -0.62854028 -0.11922199 59 43
4.6338506 -0.49872807 -0.063768595 35 50
4.6392593 -0.49930707 0.00080808747 45 58
4.6338277 -0.49872565 0.065382212 40 66
4.6573915 -0.36376068 -0.20158553 53 33
4.6572332 -0.50205332 0.13064688 63 71
4.6547647 -0.36355761 -0.13669507 54 41
4.396039 -1.0205302 -0.34368771 45 21
4.3891225 -1.0221522 -0.4690758 49 13
4.3852 -1.0220442 -0.40570816 45 17
4.4544182 -0.90490472 -0.22764073 43 29
4.5843558 -0.65407497 -0.055335842 40 51
4.5809093 -0.51652712 -0.3190358 46 23
4.4880943 -0.77577275 -0.49006909 50 12
4.5845633 -0.65492094 0.0088217603 42 59
4.5897632 -0.51833147 -0.25542146 45 27
4.4893622 -0.77679861 -0.42646351 46 16
4.607666 -0.52115715 -0.192035 37 34
4.4946599 -0.77852267 -0.36331391 41 20
4.6098843 -0.52140677 -0.12777637 45 42
4.4992228 -0.77931249 -0.3000935 40 24
4.6640778 -0.39049554 -0.072150536 42 49
4.5075641 -0.78237689 -0.23707539 45 28
4.6645627 -0.39135548 -0.0072969981 93 57
4.510253 -0.78365415 -0.17368056 40 36
4.5698333 -0.51932353 -0.44662181 47 15
4.516993 -0.78563666 -0.11037315 44 44
4.5754967 -0.52077264 -0.38286611 45 19
4.5722919 -0.64421791 -0.18320532 36 35
4.5743828 -0.64451176 -0.11922199 56 43
4.6320815 -0.51490021 -0.063768595 41 50
4.6325183 -0.51494855 0.00080721476 44 58
4.6221204 -0.51379877 0.065240845 33 66
4.6511145 -0.37961337 -0.2013683 37 33
4.6157112 -0.51390553 0.12952304 99 71
4.6484857 -0.37940094 -0.13654763 53 41
4.3827467 -1.0335771 -0.34292227 45 21
4.3855276 -1.0374668 -0.4690758 41 13
4.3767605 -1.0361962 -0.40525588 43 17
4.3744597 -0.90137911 -0.59505296 49 8
4.451232 -0.92044801 -0.22764073 42 29
4.5770974 -0.66935164 -0.055275626 32 51
4.5790782 -0.53251433 -0.3190358 40 23
4.4853592 -0.79143441 -0.49006909 38 12
4.5822487 -0.67092001 0.0088217603 40 59
4.592885 -0.53492427 -0.25569969 40 27
4.4817214 -0.79159951 -0.42599383 41 16
4.6008563 -0.5366618 -0.19182649 33 34
4.4870067 -0.79333991 -0.36291379 42 20
4.6080365 -0.53749508 -0.12777637 42 42
4.4964752 -0.79501295 -0.3000935 23 24
4.6577058 -0.40634328 -0.072072871 36 49
4.5048056 -0.79810649 -0.23707539 43 28
4.67313 -0.40849832 -0.0073127071 30 57
4.5074897 -0.79939318 -0.17368056 36 36
4.5679927 -0.53527206 -0.44662181 40 15
4.5093021 -0.80052614 -0.11025187 40 44
4.5785999 -0.53731877 -0.38328362 44 19
4.604836 -0.38962996 -0.52243346 74 11
4.5650706 -0.65946168 -0.18300553 36 35
4.5671582 -0.65976244 -0.11909197 45 43
4.6252885 -0.53049922 -0.063699655 35 50
4.6257248 -0.53054899 0.00080634205 41 58
4.6252661 -0.53049666 0.065311529 36 66
4.644784 -0.39542681 -0.20115109 36 33
4.6138892 -0.53001422 0.12952304 49 71
4.6471329 -0.39562491 -0.13654763 51 41
4.3839598 -1.0500324 -0.34330499 45 21
4.3682756 -1.0503018 -0.40480357 51 17
4.3906865 -0.92071378 -0.59771538 46 8
4.4431057 -0.93495131 -0.22738864 39 29
4.5697889 -0.68458569 -0.055215418 32 51
4.5722389 -0.54790437 -0.31868789 33 23
4.4776769 -0.80620605 -0.48952994 39 12
4.574934 -0.686171 0.0088121612 36 59
4.5909901 -0.55095315 -0.25569969 29 27
4.4740314 -0.80635637 -0.42552415 25 16
4.5939946 -0.55212533 -0.19161798 19 34
4.4793048 -0.8081134 -0.36251363 39 20
4.5962067 -0.55238986 -0.12749889 34 42
4.4887624 -0.80981851 -0.29976299 13 24
4.651279 -0.42215133 -0.071995199 28 49
4.4970779 -0.81293863 -0.23681457 40 28
4.6567369 -0.42346165 -0.0072891433 39 57
4.4997554 -0.8142333 -0.17348948 20 36
4.5611558 -0.55062056 -0.44613475 34 15
4.5064802 -0.81626165 -0.11025187 45 44
4.5668025 -0.55210751 -0.38244858 34 19
4.5984993 -0.40526938 -0.52186745 69 11
4.5577979 -0.67466277 -0.18280573 28 35
4.5598826 -0.67497063 -0.11896195 35 43
4.6134782 -0.54547292 -0.063561782 16 50
4.6188788 -0.54610831 0.0008054694 32 58
4.6134562 -0.5454703 0.065170169 15 66
4.6334229 -0.41076347 -0.20071663 42 33
4.6070471 -0.54553163 0.12938255 64 71
4.6407452 -0.41140667 -0.13640016 45 41
4.3597455 -1.0643607 -0.40435126 49 17
4.5673709 -0.70053315 -0.055215418 20 51
4.5702982 -0.56386119 -0.31868789 33 23
4.4748354 -0.82183129 -0.48952994 20 12
4.5675693 -0.70137924 0.008802563 34 59
4.5791292 -0.5657568 -0.25514325 24 27
4.4711895 -0.82196873 -0.42552415 20 16
4.587081 -0.56754738 -0.19140947 19 34
4.4764571 -0.82374412 -0.36251363 17 20
4.5892897 -0.56781936 -0.12736015 28 42
4.4859085 -0.82548225 -0.29976299 17 24
4.6448002 -0.43791956 -0.071917541 19 49
4.4893031 -0.82772672 -0.23655376 28 28
4.65523 -0.4397141 -0.0072891433 37 57
4.4968858 -0.82993543 -0.17348948 20 36
4.559206 -0.56653863 -0.44613475 34 15
4.6598592 -0.44014761 0.057558615 106 65
4.493772 -0.83017218 -0.11000928 39 44
4.5599031 -0.56743288 -0.38203105 37 19
4.5871615 -0.42041993 -0.52073544 42 11
4.5554147 -0.69056839 -0.18280573 18 35
4.5574985 -0.69088346 -0.11896195 44 43
4.6065826 -0.56097215 -0.063492842 17 50
4.6169443 -0.5622279 0.0008054694 26 58
4.6115236 -0.561571 0.065170169 17 66
4.6369352 -0.42738914 -0.20093386 29 33
4.6001534 -0.56100774 0.12924206 46 71
4.6343031 -0.42714867 -0.1362527 37 41
4.3511701 -1.0783728 -0.40389895 43 17
4.564898 -0.71647191 -0.055215418 22 51
4.5633535 -0.57918596 -0.31833994 23 23
4.4670534 -0.83653188 -0.48899081 20 12
4.5721736 -0.58111095 -0.25486499 21 27
4.4682932 -0.83757114 -0.42552415 20 16
4.5850725 -0.58355588 -0.19140947 23 34
4.4735541 -0.83936495 -0.36251363 22 20
4.5872803 -0.58383554 -0.12736015 31 42
4.478096 -0.84021658 -0.29943249 17 24
4.6432433 -0.45413023 -0.071917541 21 49
4.4814787 -0.84247023 -0.23629294 25 28
4.653667 -0.45596123 -0.0072891433 33 57
4.4890509 -0.84470403 -0.17329842 20 36
4.5572004 -0.58244973 -0.44613475 28 15
4.6533179 -0.45592734 0.057496656 99 65
4.5578942 -0.58334649 -0.38203105 26 19
4.5856657 -0.43642953 -0.52073544 40 11
4.5480394 -0.70570123 -0.18260594 21 35
4.5501189 -0.70602316 -0.11883194 31 43
4.6045966 -0.57704872 -0.063492842 21 50
4.605031 -0.5771029 0.00080372411 33 58
4.6045742 -0.57704598 0.065099485 21 66
4.6304421 -0.4431006 -0.20071663 22 33
4.6327839 -0.44332281 -0.1362527 36 41
4.5574322 -0.73161119 -0.055155203 28 51
4.5613041 -0.59511149 -0.31833994 34 23
4.4592228 -0.85118818 -0.48845166 29 12
4.5701175 -0.5970673 -0.25486499 31 27
4.460453 -0.85222965 -0.42505449 29 16
4.5830073 -0.59955722 -0.19140947 34 34
4.4657021 -0.85403985 -0.36211354 37 20
4.5852141 -0.59984463 -0.12736015 44 42
4.4702363 -0.85490644 -0.29910201 28 24
4.6416302 -0.47033542 -0.071917541 25 49
4.4736071 -0.85716939 -0.23603216 34 28
4.6470723 -0.47170183 -0.007281288 36 57
4.4860754 -0.86036861 -0.17329842 25 36
4.5551395 -0.59835374 -0.44613475 28 15
4.6467237 -0.47166678 0.057434697 43 65
4.55583 -0.59925288 -0.38203105 26 19
4.584115 -0.45243382 -0.52073544 96 11
4.5455489 -0.72157258 -0.18260594 33 35
4.5426908 -0.72111994 -0.11870193 52 43
4.5975952 -0.59248209 -0.063423894 28 50
4.6029882 -0.59317392 0.00080372411 43 58
4.6025319 -0.59311539 0.065099485 30 66
4.6238961 -0.45877197 -0.2004994 25 33
4.6262345 -0.45900211 -0.13610524 48 41
4.5499167 -0.7467072 -0.055094991 33 51
4.5542545 -0.61037004 -0.31799203 35 23
4.4562244 -0.86674863 -0.48845166 38 12
4.5630569 -0.61235523 -0.25458676 40 27
4.4574509 -0.86779439 -0.42505449 36 16
4.5759354 -0.61488879 -0.19120099 34 34
4.4626937 -0.86962283 -0.36211354 38 20
4.5781388 -0.61518359 -0.12722144 47 42
4.4672246 -0.87050521 -0.29910201 32 24
4.6349869 -0.48601747 -0.071839876 32 49
4.4705873 -0.87278003 -0.23603216 43 28
4.6404247 -0.48740199 -0.0072734342 42 57
4.4781404 -0.87506497 -0.17310734 30 36
4.5480909 -0.61358804 -0.44564772 46 15
4.6400771 -0.48736575 0.057372741 54 65
4.5487728 -0.61448801 -0.38161352 33 19
4.5825071 -0.46843264 -0.52073544 95 11
4.5380702 -0.7366364 -0.18240616 38 35
4.5401454 -0.73697251 -0.11870193 58 43
4.595499 -0.60852718 -0.063423894 36 50
4.5959325 -0.60858428 0.0008028514 46 58
4.5954771 -0.6085242 0.065028794 30 66
4.6172972 -0.47440305 -0.20028219 30 33
4.6196327 -0.47464111 -0.13595779 56 41
4.5472827 -0.76258481 -0.055094991 41 51
4.5520968 -0.62626368 -0.31799203 43 23
4.4482965 -0.88133299 -0.48791257 38 12
4.5608916 -0.62827951 -0.25458676 49 27
4.449512 -0.88238084 -0.42458481 46 16
4.573761 -0.63085806 -0.19120099 43 34
4.454742 -0.88422549 -0.36171341 44 20
4.5710115 -0.63048047 -0.12708269 49 42
4.4592648 -0.88512266 -0.2987715 41 24
4.6332626 -0.50219363 -0.071839876 45 49
4.4626164 -0.88740659 -0.23577134 43 28
4.6386948 -0.50359708 -0.0072734342 44 57
4.475059 -0.89069134 -0.17310734 38 36
4.5409918 -0.62878042 -0.44516066 41 15
4.6383476 -0.50355965 0.057372741 44 65
4.5466003 -0.63036239 -0.38161352 40 19
4.5561404 -0.48183358 -0.51790529 27 11
4.5305429 -0.75165677 -0.18220638 42 35
4.5326142 -0.75199968 -0.11857191 57 43
4.5883923 -0.62389386 -0.063354954 36 50
4.59378 -0.6246233 0.0008028514 45 58
4.5883703 -0.62389088 0.06495811 81 66
4.615613 -0.49051759 -0.20028219 40 33
4.6179476 -0.49076378 -0.13595779 50 41
4.5396647 -0.77761084 -0.055034775 36 51
4.5449438 -0.64145553 -0.31764415 46 23
4.44032 -0.89587259 -0.48737341 51 12
4.5537271 -0.64350045 -0.25430852 46 27
4.4464045 -0.89790714 -0.42458481 44 16
4.5616369 -0.64542562 -0.19078396 40 34
4.446743 -0.89878327 -0.36131328 41 20
4.5687828 -0.6464324 -0.12708269 46 42
4.4463673 -0.89870733 -0.29811049 39 24
4.6265121 -0.5178116 -0.071762212 44 49
4.4545975 -0.90198833 -0.23551053 46 28
4.636909 -0.51978612 -0.0072734342 44 57
4.5387692 -0.64462763 -0.44516066 47 15
4.6315923 -0.51919442 0.057310782 36 65
4.5443721 -0.64622921 -0.38161352 44 19
4.5692472 -0.49934152 -0.51960337 43 11
4.522965 -0.76663345 -0.18200658 36 35
4.5250335 -0.76698327 -0.1184419 56 43
4.5861869 -0.63990664 -0.063354954 36 50
4.5866194 -0.63996679 0.00080197875 44 58
4.6089067 -0.50608486 -0.20006496 36 33
4.6112375 -0.50633889 -0.13581033 50 41
4.5377398 -0.65660501 -0.31729624 37 23
4.4371657 -0.91136682 -0.48737341 50 12
4.5514526 -0.659392 -0.25430852 42 27
4.4383669 -0.91242063 -0.42411512 41 16
4.5544119 -0.66063052 -0.19057545 32 34
4.4435792 -0.91429985 -0.36131328 43 20
4.561552 -0.66166192 -0.12694395 44 42
4.4432034 -0.9142226 -0.29811049 42 24
4.6246762 -0.53395796 -0.071762212 35 49
4.4514217 -0.91753221 -0.23551053 45 28
4.6300988 -0.53539842 -0.0072655794 43 57
4.5364914 -0.66046697 -0.44516066 42 15
4.6198173 -0.53421795 0.057186864 36 65
4.537158 -0.66137218 -0.38119602 44 19
4.5674767 -0.51528817 -0.51960337 41 11
4.5153384 -0.7815665 -0.18180679 30 35
4.5174031 -0.78192312 -0.11831188 41 43
4.5740266 -0.65450096 -0.063217081 39 50
4.5794077 -0.65526772 0.00080110604 43 58
4.6021476 -0.52161121 -0.19984773 39 33
4.6044755 -0.52187318 -0.13566287 49 41
4.5304856 -0.67171198 -0.31694829 42 23
4.4290919 -0.92583328 -0.48683429 43 12
4.5441852 -0.67454547 -0.25403029 34 27
4.4302821 -0.926889 -0.42364544 25 16
4.5520782 -0.67652428 -0.19057545 17 34
4.4354815 -0.92878419 -0.36091316 41 20
4.5542703 -0.67684877 -0.12680522 38 42
4.435102 -0.9287048 -0.29778001 13 24
4.6178193 -0.54951108 -0.071684547 26 49
4.4433045 -0.93204051 -0.23524971 43 28
4.6232357 -0.55096954 -0.0072577246 41 57
4.5292363 -0.67556703 -0.44467363 36 15
4.6179242 -0.55034083 0.057186864 27 65
4.5298934 -0.67647278 -0.38077849 39 19
4.5656505 -0.53122842 -0.51960337 39 11
4.5076632 -0.7964558 -0.18160701 31 35
4.5146461 -0.79768705 -0.11831188 39 43
4.5667667 -0.66974068 -0.063148141 23 50
4.572145 -0.67052627 0.00080023345 39 58
4.6002989 -0.53767252 -0.19984773 35 33
4.6026258 -0.53794265 -0.13566287 47 41
4.5281129 -0.68752217 -0.31694829 35 23
4.4258327 -0.94128799 -0.48683429 35 12
4.5368667 -0.6896562 -0.25375205 24 27
4.4270196 -0.942348 -0.42364544 30 16
4.5447497 -0.69166124 -0.19036695 18 34
4.4273381 -0.94322348 -0.36051306 36 20
4.5518794 -0.69274205 -0.12680522 31 42
4.4220734 -0.94210255 -0.29711899 17 24
4.6009851 -0.5638147 -0.071451552 20 49
4.4400244 -0.94754481 -0.23524971 36 28
4.6163216 -0.56649923 -0.0072498694 38 57
4.5219312 -0.69062448 -0.44418657 35 15
4.6110129 -0.56585211 0.057124913 20 65
4.5225782 -0.6915307 -0.38036096 41 19
4.5539021 -0.54598767 -0.51847136 41 11
4.499938 -0.81130075 -0.18140723 23 35
4.5069151 -0.81255615 -0.11818188 65 43
4.5644011 -0.68567753 -0.063148141 22 50
4.569777 -0.68648189 0.00080023345 26 58
4.5934339 -0.55313414 -0.1996305 22 33
4.595757 -0.55341202 -0.13551541 39 41
4.5207567 -0.70256102 -0.31660038 27 23
4.4128032 -0.95463049 -0.48575604 20 12
4.5294986 -0.70472395 -0.25347382 25 27
4.4188385 -0.95674276 -0.42317581 17 16
4.5423079 -0.70752114 -0.19036695 21 34
4.4240189 -0.95867199 -0.36051306 21 20
4.5444951 -0.70786053 -0.12666649 29 42
4.4187584 -0.9575327 -0.29711899 17 24
4.598989 -0.57987171 -0.071451552 21 49
4.609355 -0.58198744 -0.0072420156 25 57
4.5194926 -0.70640481 -0.44418657 25 15
4.6040487 -0.58132184 0.057062954 22 65
4.5201368 -0.70731324 -0.38036096 23 19
4.5519686 -0.56188041 -0.51847136 23 11
4.4970789 -0.8270036 -0.18140723 20 35
4.5570378 -0.700849 -0.063079201 23 50
4.5624099 -0.70167202 0.00079936074 20 58
4.5865173 -0.56855434 -0.19941327 22 33
4.5888371 -0.56884003 -0.13536794 37 41
4.5182772 -0.71833712 -0.31660038 28 23
4.4045892 -0.96896076 -0.48521692 28 12
4.5270109 -0.72053051 -0.25347382 30 27
4.4057484 -0.97002184 -0.42223644 23 16
4.5398107 -0.7233724 -0.19036695 35 34
4.4109106 -0.97196496 -0.35971278 27 20
4.5370603 -0.7229358 -0.12652774 41 42
4.4202614 -0.9740243 -0.2974495 23 24
4.5919781 -0.59528285 -0.071373887 25 49
4.6023364 -0.59743387 -0.0072341608 33 57
4.512085 -0.7213937 -0.44369951 28 15
4.5970325 -0.59674972 0.057000995 27 65
4.5176406 -0.72308707 -0.38036096 25 19
4.5549078 -0.57838809 -0.51903737 21 11
4.4941645 -0.84269631 -0.18140723 23 35
4.5545635 -0.71675181 -0.063079201 27 50
4.5795493 -0.58393306 -0.19919606 25 33
4.5818653 -0.58422649 -0.13522048 45 41
4.5108185 -0.73330706 -0.3162525 34 23
4.410882 -0.98649842 -0.48629513 37 12
4.5244684 -0.73632836 -0.25347382 38 27
4.4023356 -0.98539484 -0.42223644 30 16
4.5323267 -0.73841447 -0.19015844 35 34
4.4026275 -0.98626703 -0.35931265 34 20
4.5345092 -0.73876876 -0.12652774 45 42
4.4168348 -0.98944789 -0.2974495 25 24
4.5898719 -0.61130828 -0.071373887 31 49
4.6002226 -0.61349541 -0.0072341608 38 57
4.5046277 -0.73633957 -0.44321245 36 15
4.5949211 -0.61279273 0.057000995 34 65
4.5052538 -0.73724884 -0.37952596 31 19
4.5528612 -0.59428418 -0.51903737 23 11
4.48138 -0.85650635 -0.18100764 36 35
4.5470972 -0.7318542 -0.06301026 33 50
4.5774832 -0.59991509 -0.19919606 29 33
4.5797982 -0.60021657 -0.13522048 54 41
4.5082312 -0.74904829 -0.3162525 38 23
4.397717 -0.99968672 -0.48521692 49 12
4.5169454 -0.75130093 -0.25319555 47 27
4.3940153 -0.99965221 -0.42176676 37 16
4.5247936 -0.7534132 -0.18994993 41 34
4.399158 -1.0016291 -0.35931265 45 20
4.5269723 -0.75377458 -0.126389 47 42
4.4036245 -1.0026454 -0.29678848 32 24
4.5877099 -0.62732625 -0.071373887 39 49
4.5930986 -0.6288752 -0.0072263055 43 57
4.5020299 -0.7520591 -0.44321245 40 15
4.5977087 -0.62950259 0.057062954 41 65
4.5026531 -0.75297058 -0.37952596 37 19
4.5409102 -0.60886061 -0.51790529 26 11
4.4832673 -0.87309736 -0.18120743 61 35
4.5445151 -0.74772209 -0.06301026 40 50
4.5753613 -0.61588985 -0.19919606 38 33
4.572722 -0.61553669 -0.13507302 48 41
4.5006709 -0.76394862 -0.31590459 47 23
4.3942008 -1.0150315 -0.48521692 49 12
4.5093732 -0.76623005 -0.25291735 46 27
4.3856492 -1.0138636 -0.4212971 49 16
4.5172105 -0.76836818 -0.18974142 41 34
4.390779 -1.0158561 -0.35891256 46 20
4.5193853 -0.76873684 -0.12625027 47 42
