# .PCD v0.7 - Point Cloud Data file format
VERSION 0.7
FIELDS x y z intensity ring
SIZE 4 4 4 4 2
TYPE F F F F U
COUNT 1 1 1 1 1
WIDTH 1199
HEIGHT 1
VIEWPOINT 0 0 0 1 0 0 0
POINTS 1199
DATA ascii
4.3425665 -0.64768386 -0.21982583 25 29
4.3402672 -0.64734066 -0.1580648 36 37
4.4678893 -0.40036321 -0.053589661 33 51
4.4522905 -0.26719856 -0.30859843 31 23
4.3695321 -0.52157521 -0.47335604 23 12
4.4731135 -0.40161642 0.0085529806 37 59
4.4660816 -0.26880011 -0.24735259 35 27
4.3706384 -0.52248079 -0.41190359 25 16
4.4825206 -0.40245762 0.070912361 69 67
4.4790244 -0.27035588 -0.1857798 39 34
4.3659372 -0.52269232 -0.35010979 20 20
4.4961476 -0.2713792 -0.12403048 44 42
4.370369 -0.52322233 -0.28918701 26 24
4.3886456 -0.5269621 -0.2289903 29 28
4.3863425 -0.52746242 -0.16756637 32 36
4.4367661 -0.27016205 -0.43152335 97 15
4.403038 -0.53024763 -0.10673448 40 44
4.4373307 -0.27097338 -0.36950544 39 19
4.4090629 -0.53097248 -0.04459127 30 52
4.4157805 -0.51849353 0.016163457 38 60
4.4300246 -0.52016431 0.077999078 25 68
4.4404778 -0.39010596 -0.1768121 43 35
4.4674039 -0.39246169 -0.11571163 31 43
4.507937 -0.26339892 -0.061769363 97 50
4.5297885 -0.13185973 -0.19550322 95 33
4.2689633 -0.7733978 -0.33029231 37 21
4.272953 -0.77489239 -0.27019006 43 25
4.2762513 -0.77549183 -0.21003516 30 30
4.2736716 -0.77579349 -0.14966564 34 38
4.3504176 -0.65894973 -0.098269179 47 45
4.2722688 -0.77707899 -0.54018909 39 9
4.3561821 -0.66060132 -0.037372891 31 53
4.2625909 -0.77531493 -0.45081365 31 13
4.2633371 -0.77621984 -0.39033017 29 17
4.3176575 -0.65629631 -0.58174086 28 8
4.2008715 -0.89631552 -0.51167083 46 10
4.3353424 -0.66208369 -0.21957374 32 29
4.3379812 -0.66248703 -0.1580648 46 37
4.4565086 -0.41503304 -0.053469237 42 51
4.4513311 -0.28273836 -0.30859843 38 23
4.362751 -0.5362187 -0.47281688 25 12
4.4667053 -0.41676527 0.0085433805 43 59
4.4700985 -0.28470236 -0.24763083 39 27
4.3638477 -0.53712654 -0.41143396 31 16
4.4761105 -0.41763943 0.07083296 31 67
4.4780531 -0.28598896 -0.1857798 38 34
4.3640862 -0.53792912 -0.35010979 28 20
4.4901848 -0.28675649 -0.12389174 45 42
4.363564 -0.53786486 -0.28885651 31 24
4.3818235 -0.54166615 -0.22872949 39 28
4.3795171 -0.54215729 -0.16737533 43 36
4.4258642 -0.285014 -0.43054929 97 15
4.3961997 -0.54499948 -0.10661319 42 44
4.436358 -0.28646091 -0.36950544 41 19
4.4022217 -0.54574525 -0.044540659 38 52
4.4089794 -0.53330457 0.016145131 45 60
4.4281816 -0.53562486 0.077999078 30 68
4.4390888 -0.40560371 -0.1768121 36 35
4.4510736 -0.40669441 -0.11532159 40 43
4.5019999 -0.27882683 -0.061700422 37 50
4.5193152 -0.14735353 -0.19506875 96 33
4.2662373 -0.78829455 -0.33029231 41 21
4.2653151 -0.7888937 -0.26987696 46 25
4.2735181 -0.79041404 -0.21003516 45 30
4.2660241 -0.78979516 -0.14949201 36 38
4.3530307 -0.67489803 -0.098381743 47 45
4.2695308 -0.7919873 -0.54018909 40 9
4.3489084 -0.67503572 -0.037330128 39 53
4.2598586 -0.79018945 -0.45081365 36 13
4.2606015 -0.79109693 -0.39033017 36 17
4.3104429 -0.67060137 -0.58107519 32 8
4.2025685 -0.91202962 -0.51226717 41 10
4.3379393 -0.6779846 -0.21982583 37 29
4.3356423 -0.67762536 -0.1580648 48 37
4.4550323 -0.43058664 -0.053469237 40 51
4.4453402 -0.2979441 -0.30825049 39 23
4.3559213 -0.55082136 -0.47227779 29 12
4.4602461 -0.43187436 0.0085337814 43 59
4.4640956 -0.29997247 -0.24735259 43 27
4.357007 -0.55173117 -0.41096428 44 16
4.4646726 -0.43230137 0.070674136 36 67
4.4720426 -0.30128568 -0.18557128 39 34
4.3621821 -0.55315936 -0.35010979 36 20
4.48417 -0.30209541 -0.12375302 46 42
4.36166 -0.55309325 -0.28885651 35 24
4.3749533 -0.55632895 -0.2284687 45 28
4.3775978 -0.55744129 -0.16737533 41 36
4.4248424 -0.30046141 -0.43054929 41 15
4.3893123 -0.55971009 -0.1064919 44 44
4.4353309 -0.30194497 -0.36950544 44 19
4.3953304 -0.56047678 -0.044490043 42 52
4.4021297 -0.54807442 0.016126806 43 60
4.4262848 -0.55107886 0.077999078 38 68
4.432672 -0.42062643 -0.17661232 41 35
4.4446507 -0.42175874 -0.11519157 46 43
4.4960103 -0.29421654 -0.061631482 44 50
4.5163922 -0.29553816 0.00078365277 11 58
4.5137815 -0.16295193 -0.19485155 51 33
4.2585611 -0.80225694 -0.32990959 36 21
4.2576313 -0.80285096 -0.26956388 48 25
4.2707329 -0.80532652 -0.21003516 40 30
4.340775 -0.6885215 -0.098156616 49 45
4.2618656 -0.80596226 -0.53956676 40 9
4.2570744 -0.80505437 -0.45081365 40 13
4.2529221 -0.80503643 -0.38987786 39 17
4.3080759 -0.68564355 -0.58107519 43 8
4.3306146 -0.69233382 -0.21957374 44 29
4.3283162 -0.69196612 -0.15788332 42 37
4.4485273 -0.44563839 -0.053409025 40 51
4.4392977 -0.31311145 -0.30790257 43 23
4.3490419 -0.56538278 -0.47173867 47 12
4.4537368 -0.44694346 0.0085241832 43 59
4.4530621 -0.31485504 -0.24679613 41 27
4.3501186 -0.56629461 -0.4104946 44 16
4.4581618 -0.44738591 0.070594728 39 67
4.4659805 -0.31654397 -0.18536277 39 34
4.3503404 -0.56709558 -0.3493095 43 20
4.4781022 -0.31739587 -0.12361427 44 42
4.3547559 -0.56767058 -0.288526 38 24
4.3680334 -0.57095045 -0.22820789 42 28
4.3706708 -0.57207078 -0.16718425 41 36
4.4237666 -0.31590515 -0.43054929 49 15
4.3823748 -0.57437921 -0.10637061 44 44
4.4292798 -0.31707251 -0.36908793 49 19
4.3883891 -0.5751667 -0.044439428 38 52
4.3952298 -0.56280285 0.016108479 44 60
4.4311767 -0.43609676 -0.17661232 40 35
4.4381766 -0.43678311 -0.11506156 45 43
4.4849796 -0.30922696 -0.061493605 38 50
4.495379 -0.30993775 0.00078016211 61 58
4.5131855 -0.17870697 -0.19485155 41 33
4.5254555 -0.17918262 -0.13256621 71 41
4.2459431 -0.81523335 -0.32914412 43 21
4.2548027 -0.81770802 -0.26956388 40 25
4.2629919 -0.81928498 -0.20979176 41 30
4.3284764 -0.70206755 -0.097931482 43 45
4.2444129 -0.818012 -0.5376997 49 9
4.2493563 -0.81896657 -0.45029193 40 13
4.2403083 -0.81798697 -0.38897324 44 17
4.300766 -0.6998809 -0.58040965 41 8
4.318315 -0.70583397 -0.21906954 38 29
4.3160119 -0.70545727 -0.15752035 42 37
4.4469442 -0.46116391 -0.053409025 39 51
4.4381771 -0.32860559 -0.30790257 41 23
4.3421154 -0.57990289 -0.47119951 44 12
4.447176 -0.46197236 0.0085145831 42 59
4.4519358 -0.33039722 -0.24679613 35 27
4.3431811 -0.58081669 -0.41002491 42 16
4.4466276 -0.46191561 0.070435911 38 67
4.459866 -0.33176365 -0.18515427 41 34
4.3433943 -0.58161676 -0.34890941 39 20
4.4769669 -0.33302546 -0.12361427 41 42
4.3478031 -0.58220661 -0.28819552 43 24
4.3610649 -0.58553046 -0.22794707 40 28
4.3587432 -0.58599353 -0.16680211 39 36
4.4226365 -0.33134508 -0.43054929 42 15
4.3753896 -0.5890069 -0.10624932 43 44
4.4281464 -0.33253169 -0.36908793 41 19
4.3813992 -0.5898152 -0.044388812 39 52
4.3882813 -0.57748991 0.016090155 42 60
4.4246569 -0.45105687 -0.17641252 42 35
4.436625 -0.45227253 -0.11506156 43 43
4.4788861 -0.32452226 -0.061424665 34 50
4.5042443 -0.3263444 0.00078190747 99 58
4.4975615 -0.19382708 -0.19419985 37 33
4.5248022 -0.19497833 -0.13256621 96 41
4.2381797 -0.82909071 -0.32876143 31 21
4.2421298 -0.83063364 -0.26893774 33 25
4.2552056 -0.83319902 -0.20954838 45 30
4.3358626 -0.71880883 -0.098156616 40 45
4.2366643 -0.83186507 -0.53707743 29 9
4.2367134 -0.83187479 -0.44924834 38 13
4.2325416 -0.83182132 -0.38852099 38 17
4.2885199 -0.71326178 -0.57907838 28 8
4.3059745 -0.7192567 -0.21856536 17 29
4.3135238 -0.72051859 -0.15752035 38 37
4.4353647 -0.47562128 -0.053288594 25 51
4.4270573 -0.34333038 -0.30720678 43 23
4.3351398 -0.59438157 -0.47066039 44 12
4.4405646 -0.47696084 0.008504984 35 59
4.4408002 -0.34516758 -0.24623965 27 27
4.3411274 -0.59597367 -0.41002491 41 16
4.4400172 -0.47690222 0.070356503 25 67
4.4537001 -0.34694445 -0.18494576 33 34
4.3364 -0.5960964 -0.34850928 37 20
4.4658108 -0.34788054 -0.1233368 31 42
4.3408017 -0.59670085 -0.28786501 40 24
4.3540478 -0.60006869 -0.22768626 33 28
4.3566713 -0.60120475 -0.16680211 39 36
4.416492 -0.34639481 -0.43006223 36 15
4.3683553 -0.60359269 -0.10612804 27 44
4.4219909 -0.34759933 -0.3686704 35 19
4.3793144 -0.60510552 -0.044388812 17 52
4.3812833 -0.59213525 0.016071828 47 60
4.4131184 -0.46545464 -0.17601295 32 35
4.4300494 -0.46723413 -0.11493155 36 43
4.4727411 -0.33977875 -0.061355725 15 50
4.4831347 -0.34056208 0.00077841681 42 58
4.4918675 -0.20929697 -0.19398262 30 33
4.5091166 -0.21008629 -0.13212384 96 41
4.230371 -0.84290367 -0.32837868 31 21
4.2343111 -0.84445858 -0.26862463 43 25
4.3185415 -0.73143333 -0.097818919 37 45
4.2288699 -0.84567416 -0.53645509 22 9
4.2289076 -0.84568161 -0.44872656 37 13
4.2296124 -0.84659064 -0.38852099 27 17
4.2860041 -0.72822708 -0.57907838 17 8
4.2985153 -0.73344249 -0.21831326 23 29
4.3011312 -0.73388922 -0.15715742 17 37
4.4336777 -0.4911007 -0.053288594 30 51
4.4208593 -0.35838157 -0.30685884 36 23
4.3281159 -0.60881853 -0.47012129 38 12
4.4339023 -0.49190888 0.0084953839 28 59
4.439568 -0.36066675 -0.24623965 26 27
4.3340912 -0.6104297 -0.40955529 30 16
4.4333558 -0.49184844 0.070277087 25 67
4.4524617 -0.36248863 -0.18494576 19 34
4.3293571 -0.61053419 -0.34810916 17 20
4.4645686 -0.36346698 -0.1233368 37 42
4.3337517 -0.61115336 -0.28753451 23 24
4.3469825 -0.61456519 -0.22742546 14 28
4.3495994 -0.61570913 -0.16661106 25 36
4.410296 -0.36140576 -0.42957518 38 15
4.3612723 -0.61813653 -0.10600674 23 44
4.4157844 -0.36262804 -0.36825287 34 19
4.3722248 -0.6196875 -0.0443382 17 52
4.3742375 -0.60673887 0.016053503 41 60
4.4114666 -0.48085645 -0.17601295 30 35
4.4234214 -0.48215517 -0.11480154 32 43
4.4665437 -0.35499632 -0.061286785 16 50
4.4819183 -0.35620907 0.00077841681 43 58
4.5063944 -0.35813966 0.063403077 79 66
4.4911094 -0.22497523 -0.19398262 28 33
4.5183392 -0.22631651 -0.13241875 48 41
4.222517 -0.85667217 -0.32799596 17 21
4.2215567 -0.85724413 -0.26799846 23 25
4.2258925 -0.86043048 -0.53645509 50 9
4.2210574 -0.8594442 -0.44820482 32 13
4.2217522 -0.86035335 -0.38806868 25 17
4.2785535 -0.74233586 -0.57841277 14 8
4.295929 -0.74844265 -0.21831326 20 29
4.2985435 -0.74889851 -0.15715742 20 37
4.4269691 -0.50600821 -0.053228386 17 51
4.4195814 -0.37381107 -0.30685884 22 23
4.3259645 -0.62392288 -0.47012129 20 12
4.4271913 -0.50681621 0.0084857857 23 59
4.4333081 -0.375743 -0.24596143 24 27
4.3270073 -0.62484396 -0.4090856 34 16
4.4316125 -0.5073207 0.070277087 17 67
4.4461918 -0.37760869 -0.18473725 22 34
4.3271995 -0.62564278 -0.34810916 20 20
4.458293 -0.37862909 -0.12319807 29 42
4.3315921 -0.62627727 -0.28753451 23 24
4.344811 -0.62973523 -0.22742546 17 28
4.347424 -0.63088834 -0.16661106 20 36
4.4090075 -0.37679836 -0.42957518 37 15
4.3590884 -0.63335645 -0.10600674 28 44
4.4095273 -0.37761763 -0.36783534 32 19
4.3650875 -0.63422734 -0.044287585 20 52
4.4047971 -0.49569553 -0.17581317 23 35
4.4217114 -0.49759281 -0.11480154 26 43
4.4602947 -0.37017483 -0.061217852 18 50
4.4706817 -0.37103057 0.00077667146 39 58
4.4851861 -0.37222558 0.063120343 99 66
4.4853091 -0.2403876 -0.19376542 22 33
4.5025492 -0.24129717 -0.13197637 51 41
4.2146192 -0.87039608 -0.3276132 21 21
4.2234259 -0.87298697 -0.26831156 17 25
4.2082906 -0.87215066 -0.5345881 50 9
4.2131629 -0.87316221 -0.44768304 30 13
4.2089725 -0.87305844 -0.38716406 22 17
4.2759361 -0.75726622 -0.57841277 17 8
4.2932901 -0.76343364 -0.21831326 21 29
4.2909837 -0.76302326 -0.15697594 23 37
4.4152446 -0.52029145 -0.053107958 30 51
4.4182496 -0.38923603 -0.30685884 36 23
4.3237605 -0.63901949 -0.47012129 20 12
4.4204292 -0.52168268 0.0084761856 36 59
4.4319696 -0.39121586 -0.24596143 28 27
4.3248 -0.63994426 -0.4090856 33 16
4.4298143 -0.52278686 0.070277087 22 67
4.4398699 -0.39268932 -0.18452874 32 34
4.3200593 -0.64001387 -0.347709 20 20
4.456944 -0.39418912 -0.12319807 35 42
4.3244443 -0.64066297 -0.287204 29 24
4.5224996 -0.26768726 -0.06982059 96 49
4.3425865 -0.64489764 -0.22742546 29 28
4.3402529 -0.64532554 -0.16641998 25 36
4.4027085 -0.39174831 -0.42908812 26 15
4.3519063 -0.64783323 -0.10588545 39 44
4.4081817 -0.39300746 -0.36783534 29 19
4.3579011 -0.64872485 -0.044236969 23 52
4.4030395 -0.51106817 -0.17581317 26 35
4.4100165 -0.51187545 -0.11454151 30 43
4.4589753 -0.38574192 -0.061217852 32 50
4.4693589 -0.38663393 0.00077667146 41 58
4.4838591 -0.38787958 0.063120343 31 66
4.4794545 -0.25576219 -0.19354817 27 33
4.4966888 -0.25673178 -0.1318289 56 41
4.2164335 -0.88612974 -0.32799596 20 21
4.2057037 -0.88463706 -0.26737231 28 25
4.2052207 -0.88683498 -0.5345881 49 9
4.2100887 -0.88786358 -0.44768304 36 13
4.2107706 -0.88877535 -0.38761637 29 17
4.2830195 -0.77395117 -0.57974404 20 8
4.2856855 -0.77752334 -0.21806116 29 29
4.2833776 -0.77710432 -0.15679446 34 37
4.4134011 -0.53570038 -0.053107958 34 51
4.4118972 -0.40420416 -0.30651093 32 23
4.3215032 -0.65410835 -0.47012129 23 12
4.4136176 -0.53650814 0.0084665865 36 59
4.4256053 -0.40623057 -0.24568318 36 27
4.3225393 -0.65503675 -0.4090856 28 16
4.4229999 -0.53764516 0.070197687 31 67
4.4334974 -0.40773049 -0.18432026 33 34
4.3177991 -0.65508986 -0.347709 28 20
4.4455862 -0.4088349 -0.12292059 43 42
4.3172488 -0.65500641 -0.28687349 37 24
4.5015779 -0.28223738 -0.069509931 33 49
4.335372 -0.65930194 -0.22716464 37 28
4.3379736 -0.66047198 -0.16641998 38 36
4.4013138 -0.40711427 -0.42908812 32 15
4.3446774 -0.66226763 -0.10576417 41 44
4.4067831 -0.40839246 -0.36783534 34 19
4.3556099 -0.6639328 -0.044236969 28 52
4.3913069 -0.52525133 -0.17541359 33 35
4.4032407 -0.52667439 -0.1144115 39 43
4.4526224 -0.40085897 -0.061148912 32 50
4.4630022 -0.40178719 0.00077579881 44 58
4.4675393 -0.40219292 0.062908292 40 66
4.4735484 -0.27109885 -0.19333094 35 33
4.4412718 -0.40062541 0.12432525 37 71
4.4957657 -0.27242661 -0.1318289 55 41
4.2084403 -0.89979827 -0.3276132 37 21
4.20259 -0.89931232 -0.26737231 38 25
4.1972489 -0.90046602 -0.53396571 43 9
4.2069645 -0.90255415 -0.44768304 20 13
4.202775 -0.90242106 -0.38716406 32 17
4.2851653 -0.78979582 -0.58040965 25 8
4.2780352 -0.79156923 -0.21780907 34 29
4.2757263 -0.79114175 -0.15661299 37 37
4.4065433 -0.55048472 -0.053047743 43 51
4.4054933 -0.41913271 -0.30616304 36 23
4.314281 -0.66842866 -0.46958214 25 12
4.4067559 -0.55129242 0.0084569873 36 59
4.4191899 -0.42120564 -0.24540494 41 27
4.3153071 -0.66935879 -0.40861592 33 16
4.4210958 -0.5530811 0.070197687 40 67
4.4320474 -0.42320383 -0.18432026 37 34
4.3105612 -0.66939354 -0.34730887 34 20
4.4391561 -0.42387828 -0.12278185 46 42
4.3149362 -0.67007238 -0.28687349 33 24
4.5055542 -0.29827523 -0.069587596 48 49
4.3281102 -0.67366391 -0.22690383 39 28
4.3356414 -0.6756103 -0.16641998 46 36
4.3949127 -0.42200261 -0.42860109 37 15
4.342339 -0.67742944 -0.10576417 44 44
4.4003716 -0.42329848 -0.36741787 38 19
4.3483262 -0.67836267 -0.044186354 36 52
4.3844876 -0.53996783 -0.1752138 38 35
4.3964138 -0.5414322 -0.11428149 45 43
4.4511957 -0.41639906 -0.061148912 38 50
4.456594 -0.41690081 0.00077492616 45 58
4.4611297 -0.41732237 0.062837608 40 66
4.47756 -0.28702822 -0.19354817 45 33
4.4249167 -0.41473565 0.1239038 71 71
4.4897995 -0.28780255 -0.13168144 56 41
4.1955318 -0.91236079 -0.32684779 34 21
4.2086463 -0.91829562 -0.44820482 28 13
4.1947351 -0.91602188 -0.38671181 38 17
4.2775121 -0.80383313 -0.57974404 31 8
4.27034 -0.80557138 -0.21755698 50 29
4.3996363 -0.56522787 -0.052987535 42 51
4.3990402 -0.4340215 -0.30581513 40 23
4.3119221 -0.68348426 -0.46958214 31 12
4.4048047 -0.56667143 0.0084569873 36 59
4.412724 -0.43614087 -0.24512669 42 27
4.3129444 -0.6844179 -0.40861592 37 16
4.4141793 -0.56787401 0.070118271 46 67
4.4255714 -0.43818271 -0.18411174 40 34
4.3032756 -0.68365479 -0.34690878 49 20
4.4277015 -0.43839234 -0.12250438 44 42
4.3076434 -0.68434817 -0.28654301 37 24
4.4945097 -0.31331363 -0.069432266 36 49
4.3208008 -0.68798316 -0.22664301 43 28
4.3283229 -0.68995446 -0.16622891 42 36
4.3884611 -0.43685126 -0.42811403 40 15
4.335012 -0.69179571 -0.10564288 46 44
4.3939085 -0.43816462 -0.36700034 40 19
4.3977842 -0.2950851 -0.49809477 96 11
4.3776197 -0.55464315 -0.17501402 38 35
4.3895388 -0.55614883 -0.11415147 50 43
4.4447384 -0.43145403 -0.061079971 34 50
4.4501348 -0.43197456 0.00077405351 45 58
4.4447169 -0.43145192 0.062625557 35 66
4.4715466 -0.30232322 -0.19333094 38 33
4.4234424 -0.43017897 0.1239038 99 71
4.4787946 -0.30280718 -0.13138653 57 41
4.1971889 -0.92807847 -0.32723051 49 21
4.1811438 -0.92758673 -0.44559595 33 13
4.1866512 -0.92957747 -0.3862595 40 17
4.2698131 -0.81782669 -0.57907838 46 8
4.2675014 -0.82047272 -0.21755698 48 29
4.3926792 -0.57992935 -0.052927319 41 51
4.3875728 -0.44836617 -0.30511928 43 23
4.2996955 -0.69694197 -0.46850386 41 12
4.3928857 -0.5807367 0.008437789 42 59
4.4012418 -0.45053083 -0.24457024 37 27
4.2957878 -0.69707859 -0.40720689 45 16
4.4190445 -0.45312157 -0.18390323 38 34
4.2959437 -0.69787335 -0.34650865 41 20
4.4261441 -0.4538452 -0.12250438 43 42
4.3003035 -0.69858104 -0.2862125 40 24
4.4784303 -0.32791775 -0.069199272 39 49
4.3183737 -0.7030614 -0.22664301 42 28
4.4938636 -0.32982337 -0.0070220837 98 57
4.3209567 -0.70425582 -0.16603784 39 36
4.3869095 -0.45216721 -0.42811403 44 15
4.3227038 -0.70531487 -0.10540029 48 44
4.3873959 -0.45299089 -0.36658281 44 19
4.3967276 -0.31043443 -0.49809477 50 11
4.3707023 -0.56927699 -0.17481422 37 35
4.3826137 -0.57082397 -0.11402146 45 43
4.43823 -0.44646901 -0.061011031 38 50
4.443624 -0.44700834 0.0007731808 44 58
4.4382086 -0.44646683 0.062554874 35 66
4.4654808 -0.31757978 -0.19311371 36 33
4.4219136 -0.44561702 0.1239038 97 71
4.472724 -0.31808883 -0.13123907 55 41
4.1890602 -0.94162858 -0.32684779 46 21
4.1730304 -0.94108027 -0.44507417 51 13
4.1785235 -0.94308782 -0.38580719 47 17
4.2426143 -0.82797712 -0.57575035 49 8
4.2597108 -0.83440346 -0.21730489 42 29
4.3856735 -0.59458929 -0.052867107 29 51
4.381021 -0.46315762 -0.30477139 42 23
4.2923322 -0.71113461 -0.46796471 42 12
4.3858776 -0.59539634 0.008428189 42 59
4.3996425 -0.46589127 -0.24457024 32 27
4.2933288 -0.71206939 -0.40720689 43 16
4.4124675 -0.46802023 -0.18369472 33 34
4.2885647 -0.71204895 -0.3461085 38 20
4.4195619 -0.46876842 -0.12236565 39 42
4.2929168 -0.71277106 -0.285882 41 24
4.4722729 -0.34317005 -0.069121607 37 49
4.3060422 -0.71649325 -0.22612141 40 28
4.487699 -0.34512863 -0.007014229 36 57
4.3135428 -0.71851408 -0.16584677 30 36
4.3803549 -0.4669531 -0.42762697 36 15
4.3202157 -0.72039962 -0.10540029 40 44
4.3808331 -0.46777695 -0.36616528 38 19
4.395617 -0.32577997 -0.49809477 40 11
4.3637371 -0.5838694 -0.17461444 36 35
4.3756404 -0.58545768 -0.11389145 42 43
4.4316726 -0.46144387 -0.060942095 15 50
4.4370632 -0.46200192 0.00077230815 40 58
4.4316506 -0.46144164 0.062484194 17 66
4.4593635 -0.33279774 -0.1928965 36 33
4.4153595 -0.46053416 0.12376332 41 71
4.4715862 -0.33369964 -0.13123907 45 41
4.1857481 -0.95624536 -0.32684779 42 21
4.1794128 -0.95786655 -0.44611773 50 13
4.1703529 -0.95655274 -0.38535488 42 17
4.2445588 -0.84374839 -0.57641596 39 8
4.2518749 -0.84828991 -0.21705279 39 29
4.3835716 -0.60989457 -0.052867107 30 51
4.3793774 -0.47844741 -0.30477139 35 23
4.289824 -0.72611332 -0.46796471 40 12
4.3837724 -0.6107024 0.008428189 39 59
4.3930264 -0.48070601 -0.24429199 27 27
4.2908168 -0.72705156 -0.40720689 39 16
4.4058414 -0.48287857 -0.18348622 18 34
4.2860532 -0.72701454 -0.3461085 14 20
4.4129305 -0.48365119 -0.1222269 29 42
4.2904029 -0.72775179 -0.285882 31 24
4.4660635 -0.35838336 -0.069043942 18 49
4.2985921 -0.73068357 -0.2258606 34 28
4.4814835 -0.36039487 -0.0070063747 40 57
4.3060842 -0.73272932 -0.16565572 34 36
4.3737521 -0.48169875 -0.42713991 39 15
4.5010834 -0.3619546 0.055514012 35 65
4.3127465 -0.73463684 -0.10527901 42 44
4.3742208 -0.48252282 -0.36574778 34 19
4.394453 -0.34112155 -0.49809477 40 11
4.3616719 -0.59909815 -0.17461444 31 35
4.37357 -0.60072798 -0.11389145 34 43
4.4300346 -0.47691044 -0.060942095 15 50
4.4304523 -0.47695518 0.0007714355 31 58
4.4250422 -0.47637603 0.06241351 14 66
4.4531941 -0.34797686 -0.19267927 27 33
4.3938475 -0.47381252 0.1232014 61 71
4.4654117 -0.34892121 -0.13109161 37 41
4.156673 -0.96793115 -0.44403064 45 13
4.1669888 -0.97110415 -0.38535488 49 17
4.231873 -0.856592 -0.57508475 40 8
4.3715167 -0.62378347 -0.052746683 17 51
4.3727236 -0.49317533 -0.30442348 20 23
4.2823648 -0.74023712 -0.46742561 20 12
4.3717141 -0.6245901 0.0084089916 32 59
4.3863606 -0.49548024 -0.24401376 21 27
4.2833476 -0.74117666 -0.40673721 26 16
4.3942003 -0.49713767 -0.1830692 19 34
4.2785778 -0.74112111 -0.34570837 14 20
4.4112153 -0.4990522 -0.1222269 26 42
4.2829199 -0.74187273 -0.28555149 14 24
4.4647856 -0.37397063 -0.069043942 19 49
4.2960153 -0.74568397 -0.2258606 17 28
4.4801979 -0.37603596 -0.0070063747 35 57
4.2985773 -0.74690115 -0.16546464 17 36
4.3769889 -0.49752209 -0.42762697 34 15
4.4997926 -0.37766412 0.055514012 97 65
4.3052316 -0.74883074 -0.10515773 38 44
4.3725095 -0.49778873 -0.36574778 35 19
4.3882837 -0.35606146 -0.49752873 39 11
4.3546062 -0.61362422 -0.17441465 30 35
4.3615465 -0.61459959 -0.11363142 26 43
4.4233737 -0.49182177 -0.060873155 18 50
4.4237905 -0.4918679 0.00077056285 25 58
4.4233522 -0.49181941 0.06241351 16 66
4.4469733 -0.36311686 -0.19246204 22 33
4.4120369 -0.49134773 0.12376332 62 71
4.4691482 -0.36490878 -0.13123907 31 41
4.1490383 -0.98219705 -0.38399801 47 17
4.219151 -0.86935753 -0.57375354 40 8
4.3693128 -0.6390391 -0.052746683 20 51
4.3660207 -0.50786275 -0.30407554 32 23
4.2797551 -0.75518084 -0.46742561 17 12
4.384604 -0.5107885 -0.24401376 25 27
4.2758322 -0.75525862 -0.40626752 25 16
4.3924384 -0.51247329 -0.1830692 25 34
4.2710576 -0.75518453 -0.34530827 17 20
4.4044819 -0.51387101 -0.12208818 33 42
4.2753921 -0.75595039 -0.28522104 20 24
4.4584732 -0.3891229 -0.068966284 20 49
4.293386 -0.76067537 -0.2258606 25 28
4.468895 -0.3908096 -0.0069906651 33 57
4.2959437 -0.7619015 -0.16546464 20 36
4.3752251 -0.51279759 -0.42762697 22 15
4.4785223 -0.39164343 0.055266183 32 65
4.3707457 -0.51304865 -0.36574778 34 19
4.3820634 -0.37096235 -0.4969627 41 11
4.3474941 -0.62810838 -0.17421487 19 35
4.3593755 -0.62982053 -0.11363142 28 43
4.411695 -0.50612557 -0.060735274 21 50
4.417079 -0.50673991 0.00076969014 34 58
4.4166412 -0.50668997 0.062342823 22 66
4.4407015 -0.37821779 -0.19224481 22 33
4.4529071 -0.37924701 -0.1307967 33 41
4.1504259 -0.99783975 -0.38445032 43 17
4.3571658 -0.6528089 -0.052626252 29 51
4.3642216 -0.52309984 -0.30407554 29 23
4.2722011 -0.76923507 -0.46688649 17 12
4.3778381 -0.52549857 -0.24373554 32 27
4.2682705 -0.76929706 -0.40579784 23 16
4.3856616 -0.52720934 -0.18286069 35 34
4.2683949 -0.77008873 -0.34530827 23 20
4.3976984 -0.52864885 -0.12194944 40 42
4.272727 -0.77086967 -0.28522104 29 24
4.4521079 -0.4042356 -0.068888612 26 49
4.2857904 -0.77476972 -0.22559978 33 28
4.4675035 -0.40640658 -0.0069906651 39 57
4.288341 -0.77600336 -0.16527356 23 36
4.3684678 -0.52747333 -0.42713991 28 15
4.4771285 -0.40727404 0.055266183 48 65
4.3639812 -0.5277071 -0.36533025 29 19
4.3906398 -0.38712063 -0.49809477 24 11
4.3452749 -0.64328015 -0.17421487 35 35
4.3522058 -0.64430356 -0.1135014 36 43
4.4099016 -0.52152216 -0.060735274 27 50
4.4103174 -0.52157104 0.0007688175 42 58
4.4148455 -0.52210379 0.062342823 28 66
4.4343781 -0.39327931 -0.1920276 28 33
4.4515557 -0.39478821 -0.1307967 40 41
4.1372433 -1.0099559 -0.38354573 41 17
4.3548598 -0.66801435 -0.052626252 32 51
4.3574176 -0.53772283 -0.30372763 34 23
4.2694898 -0.78414327 -0.46688649 23 12
4.3710222 -0.54016757 -0.24345729 40 27
4.2655592 -0.78419143 -0.40579784 28 16
4.3788371 -0.54190445 -0.18265219 45 34
4.2656813 -0.78498346 -0.34530827 30 20
4.3908653 -0.54338562 -0.1218107 44 42
4.27001 -0.7857796 -0.28522104 37 24
4.4456916 -0.4193086 -0.068810947 41 49
4.2781496 -0.78882039 -0.22533897 37 28
4.4610796 -0.42153239 -0.0069828103 43 57
4.2806926 -0.79006147 -0.1650825 28 36
4.3616619 -0.54210824 -0.42665291 33 15
4.4657235 -0.4219673 0.055142265 49 65
4.362113 -0.54293704 -0.36533025 33 19
4.3843145 -0.40199509 -0.49752873 27 11
4.3430028 -0.65844405 -0.17421487 34 35
4.3449879 -0.65874428 -0.1133714 44 43
4.403091 -0.53631097 -0.060666341 36 50
4.4035063 -0.53636128 0.00076794485 45 58
4.4080324 -0.53690982 0.062272139 37 66
4.4280038 -0.40830135 -0.19181037 34 33
4.4451737 -0.40986997 -0.13064924 52 41
4.3426232 -0.68166459 -0.052505828 43 51
4.3555145 -0.5529297 -0.30372763 38 23
4.2618403 -0.79812729 -0.46634734 29 12
4.3691096 -0.55542201 -0.24345729 43 27
4.2627959 -0.79907626 -0.40579784 33 16
4.3769193 -0.55718619 -0.18265219 39 34
4.2629151 -0.79986876 -0.34530827 43 20
4.3839836 -0.55808115 -0.12167196 45 42
4.2623377 -0.79976052 -0.28489053 35 24
4.4491773 -0.43530706 -0.068888612 42 49
4.2704635 -0.80282724 -0.22507818 43 28
4.4546046 -0.43661839 -0.006974956 43 57
4.2779088 -0.80499905 -0.1650825 38 36
4.3548064 -0.55670196 -0.42616585 39 15
4.4592466 -0.43706945 0.055080306 40 65
4.355248 -0.55753064 -0.36491272 37 19
4.3828845 -0.41729677 -0.49752873 41 11
4.3554888 -0.67589283 -0.17481422 54 35
4.3673587 -0.67773032 -0.11402146 69 43
4.3962312 -0.55105853 -0.060597397 34 50
4.4016075 -0.55172908 0.00076794485 45 58
4.4061317 -0.55229348 0.062272139 40 66
4.4265513 -0.42375547 -0.19181037 44 33
4.4387398 -0.42491192 -0.13050178 55 41
4.3402176 -0.69681901 -0.052505828 38 51
4.3486118 -0.5674876 -0.30337974 41 23
4.2590284 -0.81299907 -0.46634734 37 12
4.3572431 -0.56938195 -0.2429008 44 27
4.2599807 -0.81395131 -0.40579784 35 16
4.3650393 -0.57117075 -0.18223517 42 34
4.2552013 -0.81380856 -0.34490815 43 20
4.3770528 -0.57273531 -0.12153323 45 42
4.2546196 -0.8136974 -0.28456002 42 24
4.4376817 -0.44983488 -0.068733282 41 49
4.2627311 -0.81678998 -0.22481737 43 28
4.4480786 -0.45166424 -0.0069671012 43 57
4.3528366 -0.57189965 -0.42616585 41 15
4.442771 -0.45112979 0.054894436 41 65
4.3483348 -0.57208294 -0.36449519 40 19
4.3764567 -0.43210939 -0.4969627 44 11
4.3531032 -0.69109225 -0.17481422 38 35
4.3550935 -0.69140744 -0.11376143 74 43
4.3893218 -0.56576473 -0.060528457 39 50
4.3946953 -0.56645399 0.0007670722 44 58
4.4200745 -0.43871525 -0.19159314 36 33
4.4272828 -0.43942454 -0.13020685 54 41
4.34166 -0.58200389 -0.30303183 42 23
4.2512846 -0.8269124 -0.46580821 42 12
4.3552289 -0.58458811 -0.2429008 35 27
4.2473412 -0.8269152 -0.40485853 45 16
4.363019 -0.58640403 -0.18223517 34 34
4.2425508 -0.82675159 -0.34410787 40 20
4.3700728 -0.58734775 -0.12139449 42 42
4.2517533 -0.82854378 -0.28456002 41 24
4.4360843 -0.46532252 -0.068733282 38 49
4.2598529 -0.8316648 -0.22481737 43 28
4.4415016 -0.46666986 -0.0069592465 42 57
4.3458819 -0.58642799 -0.42567879 42 15
4.4361968 -0.46611694 0.054832477 29 65
4.3413739 -0.58659399 -0.36407772 43 19
4.3749213 -0.44738346 -0.4969627 36 11
4.3260055 -0.70228934 -0.17381528 41 35
4.3230486 -0.70181048 -0.11298135 45 43
4.3873205 -0.58108294 -0.060528457 38 50
4.3827767 -0.58048397 0.00076532684 43 58
4.4135461 -0.45363492 -0.19137591 41 33
4.4207497 -0.45436916 -0.13005939 51 41
4.3346605 -0.59647864 -0.30268389 33 23
4.2386208 -0.83981603 -0.46472996 35 12
4.3482165 -0.59910882 -0.24262258 31 27
4.2395458 -0.84076834 -0.40438884 39 16
4.3559961 -0.60095054 -0.18202665 17 34
4.2347503 -0.84058607 -0.34370777 38 20
4.3630443 -0.60191852 -0.12125576 37 42
4.239048 -0.84143865 -0.28389904 37 24
4.4244924 -0.47973514 -0.06857796 17 49
4.2471299 -0.8445828 -0.22429574 42 28
4.4348745 -0.48163506 -0.0069513917 39 57
4.3388786 -0.60091472 -0.42519173 43 15
4.4295716 -0.48106369 0.054770522 23 65
4.3393002 -0.60174459 -0.36407772 37 19
4.363452 -0.46161523 -0.49583071 37 11
4.3136697 -0.71575367 -0.17341571 31 35
4.3600221 -0.72342724 -0.11402146 40 43
4.3803105 -0.59572315 -0.060459517 16 50
4.3757691 -0.59510833 0.00076445419 39 58
4.4069676 -0.46851444 -0.1911587 29 33
4.4141665 -0.4692736 -0.12991193 42 41
4.3325515 -0.61160576 -0.30268389 39 23
4.2307901 -0.85362393 -0.46419081 14 12
4.3411551 -0.61358756 -0.24234435 38 27
4.2317057 -0.85457724 -0.40391916 28 16
4.3489251 -0.61545521 -0.18181817 16 34
4.2317901 -0.85536307 -0.34370777 17 20
4.355967 -0.61644739 -0.12111701 28 42
4.2360849 -0.85623062 -0.28389904 13 24
4.4227905 -0.49517655 -0.06857796 19 49
4.2441559 -0.85940295 -0.22429574 40 28
4.4281974 -0.49655977 -0.0069435374 28 57
4.3318281 -0.61535978 -0.42470473 35 15
4.4228964 -0.49596989 0.054708563 17 65
4.3322392 -0.6161893 -0.36366019 35 19
4.3618145 -0.47684371 -0.49583071 38 11
4.3062191 -0.72997361 -0.17321593 29 35
4.3131156 -0.73114008 -0.11285134 38 43
4.3732533 -0.61032176 -0.060390584 16 50
4.3736653 -0.61037904 0.00076445419 29 58
4.4003396 -0.48335359 -0.19094147 27 33
4.4125013 -0.48467907 -0.12991193 34 41
4.3303905 -0.62672549 -0.30268389 35 23
4.2277846 -0.86838698 -0.46419081 14 12
4.3389864 -0.62873727 -0.24234435 36 27
4.2238212 -0.86834168 -0.40344951 20 16
4.3418064 -0.6299178 -0.18160966 20 34
4.2190156 -0.8681218 -0.34290752 17 20
4.3537893 -0.63164884 -0.12111701 30 42
4.21841 -0.86799735 -0.28290752 14 24
4.4160681 -0.51004249 -0.068500288 21 49
4.4214692 -0.51144367 -0.0069356826 24 57
4.3247285 -0.62976283 -0.42421767 36 15
4.4161711 -0.51083535 0.054646604 19 65
4.3251314 -0.63059205 -0.36324266 36 19
4.3601232 -0.49206638 -0.49583071 41 11
4.3036451 -0.74500072 -0.17321593 19 35
4.3710961 -0.62558353 -0.060390584 19 50
4.361608 -0.62423152 0.00076270883 17 58
4.3936615 -0.49815211 -0.19072424 21 33
4.4058161 -0.49951974 -0.12976448 30 41
4.3183079 -0.64038026 -0.30198807 26 23
4.219862 -0.88212287 -0.46365169 17 12
4.3318267 -0.6431492 -0.2420661 26 27
4.2158918 -0.88206142 -0.40297982 19 16
4.3395805 -0.6450696 -0.18160966 33 34
4.2159591 -0.88284361 -0.34290752 23 20
4.3466139 -0.64611065 -0.12097829 38 42
4.2153544 -0.88271701 -0.28290752 17 24
4.4043312 -0.52428097 -0.068344966 24 49
4.4146914 -0.52628666 -0.0069278278 32 57
4.3225036 -0.64485502 -0.42421767 26 15
4.414361 -0.52624756 0.054646604 25 65
4.3229036 -0.64568573 -0.36324266 28 19
4.3583794 -0.50728303 -0.49583071 36 11
4.2960982 -0.75915122 -0.17301613 20 35
4.3589916 -0.6393925 -0.060252704 24 50
4.3918958 -0.51348579 -0.19072424 25 33
4.3990812 -0.51431972 -0.12961702 36 41
4.3160453 -0.65544999 -0.30198807 42 23
4.2167568 -0.89684749 -0.46365169 20 12
4.3246188 -0.6575188 -0.24178785 38 27
4.2127867 -0.89677233 -0.40297982 23 16
4.3422418 -0.66096246 -0.18181817 38 34
4.2128515 -0.8975547 -0.34290752 29 20
4.3393903 -0.66053015 -0.12083954 44 42
4.2024879 -0.89534813 -0.28224653 25 24
4.4024749 -0.53965169 -0.068344966 29 49
4.4078646 -0.54108858 -0.0069199731 38 57
4.3202267 -0.65993947 -0.42421767 31 15
4.4124975 -0.54165334 0.054646604 32 65
4.3206239 -0.66077155 -0.36324266 33 19
4.3565817 -0.52249354 -0.49583071 25 11
4.2934222 -0.77414268 -0.17301613 33 35
4.3567328 -0.65460426 -0.060252704 30 50
4.3851166 -0.52822012 -0.19050701 32 33
4.3922963 -0.52907878 -0.12946956 49 41
4.3088031 -0.66974884 -0.30164018 37 23
4.2136006 -0.91156137 -0.46365169 28 12
4.3222976 -0.67261046 -0.24178785 43 27
4.2047658 -0.91041946 -0.40251014 29 16
4.3152256 -0.67228574 -0.18077563 39 34
4.2048216 -0.91119981 -0.34250736 39 20
4.3123636 -0.67184162 -0.12014586 44 42
4.1944613 -0.90895599 -0.28191602 32 24
4.3956032 -0.55439448 -0.068267301 38 49
4.4009876 -0.55584931 -0.0069121188 42 57
4.3129792 -0.6742503 -0.42373061 35 15
4.4006586 -0.55580801 0.054522693 39 65
4.308444 -0.67431444 -0.36240759 35 19
4.3547316 -0.53769767 -0.49583071 33 11
4.2808657 -0.78732109 -0.17261656 31 35
4.3494792 -0.66905099 -0.060183764 37 50
4.3782887 -0.54291332 -0.1902898 39 33
4.3854623 -0.54379672 -0.1293221 52 41
4.3064389 -0.68478531 -0.30164018 42 23
4.2249579 -0.92946637 -0.46526912 35 12
4.3149929 -0.68691218 -0.24150962 47 27
4.2015624 -0.92509121 -0.40251014 35 16
4.2980504 -0.68499488 -0.18015009 43 34
4.1918812 -0.92372805 -0.34170714 47 20
4.3001194 -0.68532324 -0.11986838 45 42
4.3886824 -0.56909585 -0.068189628 42 49
4.394062 -0.57056856 -0.006904264 42 57
4.3105998 -0.68930131 -0.42373061 38 15
4.4036498 -0.5718053 0.054584645 42 65
4.3060641 -0.68934953 -0.36240759 38 19
4.3429699 -0.55165166 -0.49469864 39 11
4.2830019 -0.80317831 -0.17281635 37 35
4.3421788 -0.68345529 -0.060114827 62 50
4.3763671 -0.55819309 -0.1902898 38 33
4.3785796 -0.55847341 -0.12917465 53 41
4.2941742 -0.69821841 -0.30094433 43 23
4.2071338 -0.94095534 -0.46365169 49 12
4.3076415 -0.70117122 -0.2412314 42 27
4.1934495 -0.93866497 -0.40204045 39 16
4.3202891 -0.70399594 -0.18119264 40 34
4.1886315 -0.93835485 -0.34170714 38 20
4.3174348 -0.70353258 -0.12042332 44 42
4.3817129 -0.58375579 -0.068111964 40 49
4.3870864 -0.58524626 -0.0068964092 42 57
4.2983437 -0.70274413 -0.42275649 43 15
4.2937965 -0.70277286 -0.36157256 42 19
4.3410177 -0.5668081 -0.49469864 46 11
4.3644848 -0.5721758 -0.18985534 37 33
4.3716474 -0.57310861 -0.12902719 52 41
4.2917109 -0.71320361 -0.30094433 36 23
4.2135186 -0.95783788 -0.46472996 53 12
4.3051677 -0.71620339 -0.2412314 37 27
4.1852937 -0.95219344 -0.40157083 46 16
4.3128772 -0.71825463 -0.18098412 20 34
4.1804705 -0.95186418 -0.34130701 43 20
4.3100224 -0.71778095 -0.1202846 42 42
4.3746953 -0.59837407 -0.068034306 28 49
4.3800626 -0.59988219 -0.0068885544 41 57
4.2958651 -0.71774381 -0.42275649 37 15
4.2913175 -0.71775669 -0.36157256 39 19
4.3340883 -0.58130139 -0.49413261 37 11
4.3575101 -0.58674484 -0.18963811 38 33
4.3646665 -0.58770227 -0.12887973 49 41
4.2842774 -0.72734833 -0.30059642 35 23
4.2101498 -0.97253996 -0.46472996 41 12
4.297719 -0.73039335 -0.24095315 27 27
4.1770945 -0.96567649 -0.40110114 43 16
4.3054185 -0.73247021 -0.18077563 16 34
4.1722665 -0.9653281 -0.34090686 42 20
4.3025632 -0.73198622 -0.12014586 36 42
4.3725796 -0.6136409 -0.068034306 20 49
4.3729911 -0.61447632 -0.0068807001 39 57
4.2884278 -0.73190069 -0.42226949 36 15
4.283874 -0.7318958 -0.36115503 38 19
4.3271112 -0.59575331 -0.49356663 35 11
4.3554349 -0.60195184 -0.18963811 21 33
4.3576369 -0.60225421 -0.12873226 40 41
4.2767973 -0.74144983 -0.30024853 33 23
4.2902236 -0.74454015 -0.24067491 38 27
4.1640058 -0.97797626 -0.40016177 47 16
4.3028355 -0.74749446 -0.18077563 19 34
4.1640196 -0.97874647 -0.34050676 38 20
4.270432 -0.74188584 -0.11931343 25 42
4.3605127 -0.6274845 -0.067878976 19 49
4.3658695 -0.62902844 -0.0068728453 25 57
4.2809439 -0.74601436 -0.42178243 35 15
4.2812929 -0.74684477 -0.36115503 34 19
4.3200855 -0.61016363 -0.4930006 38 11
4.3483615 -0.6164546 -0.18942089 19 33
4.3505597 -0.61676431 -0.1285848 30 41
4.2692709 -0.75550807 -0.29990059 20 23
4.2826824 -0.75864363 -0.24039666 21 27
4.1508818 -0.99019647 -0.39922243 47 16
4.2952805 -0.76164031 -0.18056712 20 34
4.3022695 -0.76287514 -0.1202846 36 42
4.3582954 -0.64270169 -0.067878976 22 49
4.3587003 -0.64353818 -0.0068649906 82 57
4.2734141 -0.76008475 -0.42129537 36 15
4.2737541 -0.7609145 -0.3607375 36 19
4.3130121 -0.62453204 -0.49243459 40 11
4.3412385 -0.63091522 -0.18920366 21 33
4.3483801 -0.63194686 -0.1285848 31 41
4.2666082 -0.77040595 -0.29990059 33 23
4.2800078 -0.77358836 -0.24039666 32 27
4.1473999 -1.0046797 -0.39922243 37 16
4.2876787 -0.77574265 -0.1803586 32 34
4.3510823 -0.65716869 -0.067801304 27 49
4.2707343 -0.77499712 -0.42129537 38 15
4.2661691 -0.77494055 -0.36032003 27 19
4.3108058 -0.63958347 -0.49243459 24 11
4.3390102 -0.64606512 -0.18920366 25 33
4.3412037 -0.64638978 -0.12843734 45 41
4.2638927 -0.78529453 -0.29990059 38 23
4.2723718 -0.78762168 -0.24011844 39 27
4.1293659 -1.015586 -0.39781344 37 16
4.2800317 -0.78980112 -0.18015009 38 34
4.3487616 -0.67235285 -0.067801304 33 49
4.2631102 -0.78899741 -0.42080832 32 15
4.2634377 -0.78982759 -0.36032003 32 19
4.3134594 -0.65536916 -0.4930006 27 11
4.3367286 -0.6612072 -0.18920366 35 33
4.3389211 -0.66153949 -0.12843734 50 41
4.2611256 -0.80017352 -0.29990059 40 23
4.2646899 -0.80161101 -0.23984021 46 27
4.2772484 -0.80473644 -0.18015009 30 34
4.3365107 -0.6859749 -0.067645982 41 49
4.2603297 -0.80387366 -0.42080832 36 15
4.2606554 -0.80470484 -0.36032003 36 19
4.3062353 -0.66966271 -0.49243459 33 11
4.3393302 -0.6771071 -0.18942089 42 33
4.3316464 -0.67591482 -0.12828988 50 41
4.2534065 -0.81410801 -0.29955268 42 23
4.2569613 -0.81555629 -0.23956196 45 27
4.2695069 -0.81872416 -0.17994161 55 34
4.3340898 -0.70110804 -0.067645982 32 49
4.2574973 -0.81874007 -0.42080832 38 15
4.2578201 -0.81957239 -0.36032003 38 19
4.3038716 -0.68469018 -0.49243459 39 11
4.3320069 -0.69146687 -0.18920366 42 33
4.3243241 -0.69024736 -0.12814242 52 41
4.2456427 -0.82799852 -0.29920477 37 23
4.2540884 -0.8304109 -0.23956196 44 27
4.2448454 -0.83168894 -0.41983423 43 15
4.2451539 -0.8325184 -0.35948497 44 19
4.2916474 -0.6981225 -0.49130252 45 11
4.3197045 -0.70498335 -0.18876921 41 33
4.3120222 -0.70373631 -0.12784751 52 41
4.2329407 -0.84087586 -0.29850894 32 23
4.2462673 -0.84428489 -0.23928373 42 27
4.2370362 -0.84553039 -0.4193472 40 15
4.2324486 -0.84538591 -0.35864994 35 19
4.2842827 -0.71228844 -0.49073654 36 11
4.3122897 -0.71924007 -0.18855198 27 33
4.3095398 -0.71878386 -0.12784751 37 41
4.22998 -0.85564649 -0.29850894 33 23
4.2384009 -0.85811448 -0.23900551 97 27
4.2291818 -0.85932732 -0.41886014 32 15
4.2294717 -0.86015475 -0.35864994 25 19
4.2768726 -0.7264114 -0.49017051 35 11
4.3048282 -0.73345369 -0.18833476 19 33
4.3020768 -0.7329874 -0.12770005 39 41
4.2171955 -0.86840075 -0.29781312 24 23
4.2353797 -0.87290394 -0.23900551 95 27
4.2261562 -0.87408471 -0.41886014 34 15
4.2215633 -0.87390602 -0.35823241 20 19
4.2743101 -0.74133611 -0.49017051 36 11
4.2973194 -0.74762386 -0.18811753 20 33
4.2896428 -0.74629509 -0.12740512 86 41
4.2141385 -0.88311619 -0.29781312 21 23
4.2133393 -0.88678777 -0.41788605 25 15
4.2136111 -0.8876127 -0.35781488 22 19
4.271697 -0.75625169 -0.49017051 22 11
4.2897644 -0.76175058 -0.1879003 22 33
4.21103 -0.89782089 -0.29781312 35 23
4.215085 -0.90252858 -0.41837311 39 15
4.2104869 -0.90231556 -0.35781488 29 19
4.269031 -0.7711581 -0.49017051 21 11
4.2870793 -0.77672005 -0.1879003 27 33
4.1981201 -0.91040665 -0.29711729 38 23
4.2070456 -0.91618055 -0.41788605 34 15
4.2073116 -0.91700739 -0.35781488 33 19
4.2614264 -0.78515911 -0.48960447 26 11
4.2745166 -0.78987312 -0.18746586 34 33
4.1949162 -0.92505527 -0.29711729 99 23
4.1989627 -0.92978752 -0.41739899 38 15
4.194355 -0.92953801 -0.35697985 38 19
4.2537766 -0.79911649 -0.48903847 33 11
4.2717333 -0.80478925 -0.18746586 42 33
4.1908355 -0.94334906 -0.41691193 43 15
4.1910849 -0.94417346 -0.35697985 44 19
4.2509613 -0.81396008 -0.48903847 38 11
4.1778145 -0.95575875 -0.41593787 48 15
4.1829062 -0.95768833 -0.35656232 45 19
4.2432179 -0.82784671 -0.48847249 46 11
4.1647573 -0.96808892 -0.41496375 46 15
4.1795373 -0.9722836 -0.35656232 37 19
4.2354283 -0.84168917 -0.48790646 35 11
4.1613526 -0.98262078 -0.41496375 39 15
4.1664181 -0.98458117 -0.35572726 96 19
4.2227244 -0.85450619 -0.48677438 34 11
4.1433783 -0.99366832 -0.41350263 96 15
4.2197156 -0.86924106 -0.48677438 35 11
4.2117934 -0.88295037 -0.48620841 29 11
4.203826 -0.89661485 -0.48564237 28 11
4.1958141 -0.91023439 -0.48507637 32 11
4.1877594 -0.92380911 -0.48451033 95 11
4.5020161 -0.099989027 -0.26461697 47 26
4.5016398 -0.11570338 -0.26461697 45 26
4.4962192 -0.1312665 -0.2643213 46 26
4.4957333 -0.14696044 -0.2643213 46 26
4.5089459 -0.14819118 -0.2024457 66 32
4.4960542 -0.16268447 -0.32696259 48 22
4.4902053 -0.16246796 -0.26402563 48 26
4.5034094 -0.16374379 -0.20221975 46 32
4.4805112 -0.17777203 -0.32586664 49 22
4.4896107 -0.1781407 -0.26402563 45 26
4.5028105 -0.17946264 -0.20221975 41 32
4.4848447 -0.1936301 -0.32623193 41 22
4.4839749 -0.19359183 -0.26372999 29 26
4.4971666 -0.19495879 -0.20199381 29 32
4.4741797 -0.20881067 -0.32550129 33 22
4.4832726 -0.20924264 -0.26372999 24 26
4.4914689 -0.21041772 -0.20176786 17 32
4.5137796 -0.21227114 -0.14009549 51 40
4.4635839 -0.22314428 -0.38629618 28 18
4.4634628 -0.22391914 -0.32477066 17 22
4.4775295 -0.22463663 -0.26343432 26 26
4.4907074 -0.22609459 -0.20176786 17 32
4.5080199 -0.22776957 -0.13993931 42 40
4.4578042 -0.23845349 -0.38586214 28 18
4.4576755 -0.23922677 -0.32440534 23 22
4.4717345 -0.23999311 -0.26313865 23 26
4.4898906 -0.2417687 -0.20176786 28 32
4.5022073 -0.24323033 -0.13978311 47 40
4.451972 -0.25372508 -0.38542813 30 18
4.4568129 -0.25478551 -0.32440534 23 22
4.4708695 -0.2556009 -0.26313865 31 26
4.4840331 -0.25714976 -0.20154193 20 32
4.4963422 -0.25865334 -0.13962694 45 40
4.5028439 -0.25903279 -0.077319227 56 48
4.4460874 -0.26895887 -0.38499409 37 18
4.4558969 -0.27034113 -0.32440534 32 22
4.4649682 -0.27089912 -0.26284298 42 26
4.483108 -0.27280039 -0.20154193 29 32
4.4904237 -0.27403834 -0.13947074 45 40
4.496923 -0.27444041 -0.077232838 42 48
4.5187826 -0.1448544 -0.2107258 51 31
4.4293709 -0.28267941 -0.44640633 53 14
4.4451213 -0.284477 -0.38499409 53 18
4.4499497 -0.28556991 -0.32404003 36 22
4.4639955 -0.28648314 -0.26284298 43 26
4.4771442 -0.28812277 -0.20131598 32 32
4.4844532 -0.2893852 -0.13931458 43 40
4.4909487 -0.28980982 -0.077146441 42 48
4.5082669 -0.16026622 -0.21025649 52 31
4.4233942 -0.29780072 -0.44590193 47 14
4.4341617 -0.29931229 -0.38412598 49 18
4.4439502 -0.30076048 -0.32367468 49 22
4.4530087 -0.3013812 -0.26225168 43 26
4.471128 -0.3034068 -0.20109004 37 32
4.4784298 -0.3046937 -0.13915838 43 40
4.4849224 -0.30514088 -0.077060059 39 48
4.5076799 -0.17600201 -0.21025649 46 31
4.417366 -0.31288376 -0.44539753 54 14
4.4330902 -0.31478855 -0.38412598 46 18
4.4378996 -0.31591266 -0.32330936 42 22
4.45193 -0.31692332 -0.26225168 43 26
4.4650598 -0.31865236 -0.20086409 38 32
4.4723539 -0.31996369 -0.1390022 43 40
4.4788442 -0.32043344 -0.076973669 32 48
4.4844141 -0.32162336 -0.014790519 40 56
4.5020485 -0.19152045 -0.21002181 30 31
4.4162469 -0.32830134 -0.44539753 43 14
4.4269981 -0.3298867 -0.38369197 42 18
4.4317975 -0.33102629 -0.32294407 37 22
4.4458189 -0.33208549 -0.26195601 42 26
4.4539595 -0.33348218 -0.20041221 17 32
4.4662266 -0.33519498 -0.13884601 34 40
4.4776983 -0.33606556 -0.076973669 17 48
4.4782777 -0.33689564 -0.014773938 40 56
4.4963632 -0.20700169 -0.20978715 20 31
4.5138302 -0.20781626 -0.14791925 48 39
4.4051557 -0.34293431 -0.44438866 37 14
4.4208531 -0.34494606 -0.38325793 39 18
4.4256439 -0.34610116 -0.32257873 20 22
4.4396567 -0.34720892 -0.26166034 34 26
4.4527683 -0.34902734 -0.20041221 17 32
4.4600477 -0.35038742 -0.13868985 41 40
4.4665303 -0.35090217 -0.076800883 17 48
4.4770746 -0.35252571 -0.014773938 39 56
4.4906249 -0.22244559 -0.20955248 17 31
4.5030951 -0.22307076 -0.14758945 44 39
4.4962211 -0.10042474 -0.2798956 43 25
4.4039316 -0.35830909 -0.44438866 20 14
4.4196224 -0.36037564 -0.38325793 20 18
4.4194393 -0.36113709 -0.32221341 20 22
4.4334445 -0.36229345 -0.2613647 23 26
4.4515228 -0.36456832 -0.20041221 17 32
4.4538169 -0.36554074 -0.13853365 40 40
4.4652786 -0.36649111 -0.076800883 17 48
4.4708338 -0.36773741 -0.014757356 35 56
4.4805722 -0.36854661 0.047482528 30 64
4.4848337 -0.23785196 -0.20931783 23 31
4.5022893 -0.23878814 -0.14758945 45 39
4.4958429 -0.11611888 -0.2798956 57 25
4.3976974 -0.3732546 -0.44388428 20 14
4.4133749 -0.37537447 -0.38282388 23 18
4.4131832 -0.37613392 -0.32184806 20 22
4.4271793 -0.37733874 -0.26106903 29 26
4.4452462 -0.37967551 -0.20018625 17 32
4.4475346 -0.38065487 -0.13837747 36 40
4.4589915 -0.38164511 -0.076714501 14 48
4.4645414 -0.38290986 -0.014740774 36 56
4.4692965 -0.38332164 0.047376063 42 64
4.4839764 -0.25350553 -0.20931783 25 31
4.4964385 -0.25421754 -0.14742453 50 39
4.5025072 -0.26402587 -0.085128285 48 47
4.4954104 -0.13181159 -0.2798956 43 25
4.3914137 -0.38816094 -0.44337988 30 14
4.4070759 -0.39033404 -0.38238981 34 18
4.41681 -0.39198154 -0.32221341 25 22
4.4258351 -0.3927902 -0.26106903 39 26
4.4438934 -0.39519 -0.20018625 20 32
4.4412017 -0.39572966 -0.13822129 42 40
4.4626107 -0.39765546 -0.076800883 20 48
4.4631782 -0.39849168 -0.014740774 41 56
4.4679308 -0.39892006 0.047376063 42 64
4.4830642 -0.26915595 -0.20931783 28 31
4.4905357 -0.26960903 -0.14725962 51 39
4.4965687 -0.27942789 -0.085033171 49 47
4.4899354 -0.14733724 -0.2795825 46 25
4.3900313 -0.4034875 -0.44337988 36 14
4.498394 -0.14761785 -0.21757986 54 30
4.4056864 -0.40571523 -0.38238981 42 18
4.4104495 -0.40693435 -0.32184806 31 22
4.419467 -0.40777406 -0.26077336 42 26
4.4375143 -0.41023567 -0.19996031 25 32
4.4397931 -0.41122994 -0.13822129 42 40
4.4462628 -0.41183466 -0.076541714 41 48
4.4567819 -0.4136025 -0.014724194 41 56
4.4615335 -0.41404745 0.047322832 41 64
4.4771128 -0.28448346 -0.20908317 30 31
4.4304399 -0.41269565 0.1086384 20 70
4.4845805 -0.28496245 -0.14709473 48 39
4.4905782 -0.29479173 -0.084938049 45 47
4.4893937 -0.16300914 -0.2795825 49 25
4.3885965 -0.41880912 -0.44337988 49 14
4.4928613 -0.16313627 -0.21733648 46 30
4.3992858 -0.42061326 -0.3819558 45 18
4.4040394 -0.42184755 -0.32148278 37 22
4.4130492 -0.42271829 -0.26047769 42 26
4.4360547 -0.42572302 -0.19996031 30 32
4.4333568 -0.42624277 -0.13806511 42 40
4.444798 -0.42735252 -0.076541714 29 48
4.4503341 -0.42867348 -0.014707613 41 56
4.4501081 -0.42865151 0.047216371 41 64
4.4711099 -0.29977268 -0.20884851 34 31
4.4289722 -0.42815822 0.1086384 24 70
4.4785724 -0.3002775 -0.14692983 48 39
4.4845343 -0.31011713 -0.084842943 41 47
4.4745312 -0.17732391 -0.34100863 43 21
4.4952579 -0.3108651 -0.022625232 42 55
4.4887972 -0.17867906 -0.2795825 44 25
4.3821573 -0.43363151 -0.44287544 44 14
4.4922638 -0.1788183 -0.21733648 40 30
4.3977904 -0.43596706 -0.3819558 43 18
4.3975778 -0.43672094 -0.32111746 42 22
4.4065804 -0.43762267 -0.26018205 42 26
4.4246016 -0.44020775 -0.19950843 40 32
4.4218969 -0.44071579 -0.13775274 42 40
4.4383059 -0.44236514 -0.076455325 37 48
4.4438362 -0.44370449 -0.014691031 41 56
4.4485855 -0.44418269 0.047216371 38 64
4.465054 -0.31502342 -0.20861384 31 31
4.4423704 -0.44512323 0.10900749 41 70
4.4774971 -0.31590879 -0.14692983 48 39
4.4784389 -0.32540396 -0.084747829 37 47
4.4689045 -0.19272524 -0.34062591 30 21
4.4841723 -0.32582402 -0.022574617 43 55
4.4881463 -0.19434682 -0.2795825 33 25
4.3806171 -0.44892544 -0.44287544 42 14
4.4866233 -0.19428033 -0.21709311 23 30
4.3912873 -0.45080265 -0.38152176 42 18
4.5041604 -0.19583361 -0.1553953 52 38
4.3910666 -0.45155433 -0.32075211 39 22
4.4000611 -0.45248702 -0.25988638 42 26
4.4131021 -0.45461774 -0.19905654 17 32
4.4153605 -0.45563117 -0.13759656 42 40
4.4317622 -0.45733771 -0.076368935 17 48
4.4372869 -0.45869532 -0.014674449 40 56
4.4420342 -0.45919013 0.047163136 33 64
4.4589472 -0.3302356 -0.20837919 20 31
4.4358182 -0.46010736 0.10888445 38 70
4.4664001 -0.33079207 -0.14660001 42 39
4.4772754 -0.34103462 -0.084747829 14 47
4.468205 -0.20832348 -0.34062591 20 21
4.4879928 -0.34185737 -0.022599922 40 55
4.4824562 -0.2097771 -0.27926946 28 25
4.3740773 -0.46368536 -0.44237101 39 14
4.485918 -0.20994036 -0.21709311 14 30
4.3847342 -0.46559814 -0.38108772 41 18
4.4984579 -0.21131863 -0.15522167 43 38
4.3845053 -0.46634763 -0.3203868 14 22
4.3934922 -0.46731123 -0.25959072 25 26
4.4065228 -0.46948624 -0.1988306 17 32
4.4137435 -0.4710409 -0.13759656 41 40
4.425168 -0.47226995 -0.076282546 14 48
4.4356589 -0.47418153 -0.014674449 39 56
4.4354334 -0.47415727 0.047109906 14 64
4.4527869 -0.34540895 -0.20814453 20 31
4.4341846 -0.4755885 0.10888445 29 70
4.4602365 -0.34599131 -0.14643511 36 39
4.3715973 -0.33982956 -0.52240521 46 10
4.4660916 -0.35586101 -0.084557593 20 47
4.4674506 -0.22391915 -0.34062591 34 21
4.4718204 -0.35632095 -0.022524001 39 55
4.4767127 -0.22517006 -0.27895635 25 25
4.3773766 -0.47949678 -0.44287544 20 14
4.4801698 -0.22534518 -0.21684973 17 30
4.3830824 -0.48090088 -0.38108772 24 18
4.4976931 -0.22701988 -0.15522167 40 38
4.3778944 -0.48110068 -0.32002151 20 22
4.3918338 -0.48264456 -0.25959072 21 26
4.4048567 -0.48486501 -0.1988306 17 32
4.4021378 -0.48534116 -0.1372842 34 40
4.452126 -0.22704075 -0.40163752 41 17
4.4234924 -0.48771381 -0.076282546 14 48
4.4240379 -0.48855603 -0.014641288 22 56
4.4287829 -0.48908404 0.047056679 17 64
4.4515543 -0.36094999 -0.20814453 26 31
4.4523683 -0.49328205 0.10937659 17 70
4.4540205 -0.36115143 -0.14627022 36 39
4.38028 -0.35589725 -0.52359784 36 10
4.4648223 -0.3714484 -0.084557593 17 47
4.4616637 -0.23924336 -0.34024316 33 21
4.4705496 -0.37192833 -0.022524001 29 55
4.4709167 -0.24052547 -0.27864328 42 25
