# .PCD v0.7 - Point Cloud Data file format
VERSION 0.7
FIELDS x y z intensity ring
SIZE 4 4 4 4 2
TYPE F F F F U
COUNT 1 1 1 1 1
WIDTH 1215
HEIGHT 1
VIEWPOINT 0 0 0 1 0 0 0
POINTS 1215
DATA ascii
4.2572408 -0.35877696 -0.39969212 54 16
4.360878 -0.11078056 -0.18056712 33 34
4.362977 -0.11083259 -0.12014586 100 42
4.4004006 0.016221765 -0.067801304 28 49
4.4209232 0.015543293 -0.0068885544 45 57
4.3042026 -0.11163078 -0.41788605 36 15
4.3095994 -0.11252005 -0.35823241 36 19
4.3032632 0.027047204 -0.48620841 40 11
4.3717856 0.025248403 -0.18855198 29 33
4.3839912 0.025329359 -0.12828988 40 41
4.318881 -0.12331733 -0.29885688 38 23
4.2500572 -0.37237018 -0.45879954 52 12
4.3425741 -0.12473767 -0.24011844 26 27
4.2510037 -0.37320057 -0.39922243 55 16
4.3554711 -0.12586096 -0.1803586 25 34
4.4004302 0.00086140353 -0.067801304 24 49
4.4159517 0.0001069312 -0.0068807001 34 57
4.3037868 -0.12665457 -0.41788605 23 15
4.3091803 -0.12756267 -0.35823241 36 19
4.3033314 0.012025848 -0.48620841 41 11
4.3718472 0.0099878693 -0.18855198 26 33
4.379055 0.010010514 -0.12814242 32 41
4.3134384 -0.1382356 -0.29850894 37 23
4.2487316 -0.38720337 -0.45879954 54 12
4.337122 -0.13973764 -0.23984021 36 27
4.2496748 -0.38803706 -0.39922243 52 16
4.3500113 -0.14090495 -0.18015009 27 34
4.3954072 -0.014487366 -0.067723647 22 49
4.2983446 -0.14151616 -0.41739899 21 15
4.3087087 -0.14260374 -0.35823241 23 19
4.3033471 -0.0029956533 -0.48620841 30 11
4.3768506 -0.0052751377 -0.18876921 27 33
4.3740654 -0.0052741654 -0.12799495 32 41
4.3129296 -0.15329146 -0.29850894 25 23
4.3366079 -0.15487616 -0.23984021 26 27
4.2383828 -0.40193018 -0.39828306 42 16
4.3494935 -0.15608846 -0.18015009 29 34
4.39533 -0.029830111 -0.067723647 27 49
4.2978244 -0.15651932 -0.41739899 26 15
4.3081851 -0.15764308 -0.35823241 29 19
4.3033104 -0.018017719 -0.48620841 33 11
4.3768058 -0.020553166 -0.18876921 33 33
4.3740206 -0.020542471 -0.12799495 34 41
4.3173528 -0.16853696 -0.29885688 31 23
4.336041 -0.1700128 -0.23984021 42 27
4.3439302 -0.17107658 -0.17994161 95 34
4.3901992 -0.045125376 -0.067645982 30 49
4.2972522 -0.17152056 -0.41739899 32 15
4.3076081 -0.17268048 -0.35823241 36 19
4.3032207 -0.033038963 -0.48620841 42 11
4.3717122 -0.035794325 -0.18855198 44 33
4.3739219 -0.035810523 -0.12799495 49 41
4.3117547 -0.18339743 -0.29850894 37 23
4.3354211 -0.18514739 -0.23984021 40 27
4.3900156 -0.060449753 -0.067645982 101 49
4.296627 -0.18651974 -0.41739899 42 15
4.3069797 -0.18771578 -0.35823241 41 19
4.3030801 -0.048059806 -0.48620841 51 11
4.3715606 -0.051054232 -0.18855198 46 33
4.3737702 -0.051078148 -0.12799495 48 41
4.3110881 -0.19844712 -0.29850894 42 23
4.3347483 -0.20027971 -0.23984021 44 27
4.2959499 -0.20151661 -0.41739899 48 15
4.3013206 -0.20251758 -0.35781488 47 19
4.3028855 -0.063080065 -0.48620841 52 11
4.3663611 -0.066242032 -0.18833476 48 33
4.3685679 -0.066273615 -0.12784751 58 41
4.305387 -0.21325079 -0.29816103 46 23
4.3290362 -0.21516483 -0.23956196 98 27
4.2902498 -0.21626361 -0.41691193 47 15
4.3005877 -0.21753077 -0.35781488 47 19
4.2976723 -0.078013718 -0.48564237 51 11
4.3611093 -0.081394143 -0.18811753 42 33
4.3683105 -0.08152236 -0.12784751 53 41
4.3046165 -0.2282781 -0.29816103 40 23
4.3332443 -0.23053682 -0.23984021 98 27
4.2845001 -0.23097332 -0.41642493 44 15
4.294827 -0.23227532 -0.35739735 45 19
4.3023405 -0.093118101 -0.48620841 41 11
4.3607984 -0.09661676 -0.18811753 43 33
4.3679991 -0.096770115 -0.12784751 52 41
4.3037934 -0.24330263 -0.29816103 35 23
4.2836676 -0.2459276 -0.41642493 35 15
4.2939897 -0.24726564 -0.35739735 36 19
4.2970228 -0.10801498 -0.48564237 40 11
4.3554406 -0.11171441 -0.1879003 30 33
4.2979383 -0.25802833 -0.29781312 36 23
4.2778158 -0.26057944 -0.41593787 22 15
4.2881274 -0.26195225 -0.35697985 28 19
4.2916532 -0.12287588 -0.48507637 40 11
4.3500304 -0.12677583 -0.18768308 26 33
4.2970119 -0.27302939 -0.29781312 37 23
4.2768803 -0.27551019 -0.41593787 22 15
4.2871871 -0.27691901 -0.35697985 25 19
4.2862325 -0.13770063 -0.48451033 41 11
4.3495617 -0.14195949 -0.18768308 27 33
4.2910562 -0.28769654 -0.29746523 89 23
4.2758923 -0.29043761 -0.41593787 27 15
4.2861938 -0.29188243 -0.35697985 26 19
4.2857261 -0.15266153 -0.48451033 34 11
4.344048 -0.15696537 -0.18746586 30 33
4.2748523 -0.30536148 -0.41593787 33 15
4.2901192 -0.30719501 -0.35739735 36 19
4.2851667 -0.16762057 -0.48451033 50 11
4.2687979 -0.31991288 -0.41545081 42 15
4.2790833 -0.32142821 -0.35656232 40 19
4.2845554 -0.18257758 -0.48451033 52 11
4.2626939 -0.33442569 -0.41496375 50 15
4.2829022 -0.33675051 -0.35697985 36 19
4.2838922 -0.19753234 -0.48451033 49 11
4.2615004 -0.34930328 -0.41496375 52 15
4.2817006 -0.35169858 -0.35697985 97 19
4.2782149 -0.21224293 -0.48394436 49 11
4.2552972 -0.36375585 -0.41447675 48 15
4.2724872 -0.22691625 -0.48337832 46 11
4.2490449 -0.37816933 -0.41398969 49 15
4.2716689 -0.24182864 -0.48337832 40 11
4.2476983 -0.39299899 -0.41398969 40 15
4.2658396 -0.25644431 -0.48281229 35 11
4.2413473 -0.40735117 -0.41350263 97 15
4.2649183 -0.27133328 -0.48281229 40 11
4.2589879 -0.28589058 -0.48224625 33 11
4.2629199 -0.30110121 -0.48281229 41 11
4.2618432 -0.31597972 -0.48281229 53 11
4.2557607 -0.33047411 -0.48224625 61 11
4.2595334 -0.34572506 -0.48281229 97 11
4.3692627 0.54644835 -0.25870374 47 26
4.366188 0.53059554 -0.25840807 45 26
4.3729711 0.51593214 -0.25870374 47 26
4.3410044 0.4968321 -0.31746423 12 22
4.3697858 0.50010115 -0.25840807 47 26
4.4077773 0.50363702 -0.19905654 36 32
4.3427124 0.48167613 -0.31746423 51 22
4.3715048 0.48484471 -0.25840807 45 26
4.3995781 0.48715687 -0.19860466 42 32
4.344367 0.46651432 -0.31746423 43 22
4.3731709 0.46958235 -0.25840807 45 26
4.406219 0.47232476 -0.1988306 41 32
4.3459692 0.45134678 -0.31746423 41 22
4.374783 0.45431429 -0.25840807 43 26
4.4028721 0.45643041 -0.19860466 32 32
4.3426766 0.43645778 -0.37718135 38 18
4.3574429 0.43716088 -0.3181949 36 22
4.3763423 0.43904066 -0.25840807 28 26
4.3994675 0.44056526 -0.19837871 29 32
4.4167953 0.44150707 -0.13759656 23 40
4.3491325 0.42177293 -0.37761539 20 18
4.3490143 0.42099547 -0.31746423 17 22
4.3778481 0.42376173 -0.25840807 27 26
4.4009786 0.42520556 -0.19837871 17 32
4.4183092 0.42608687 -0.13759656 41 40
4.3406577 0.40567052 -0.37674728 20 18
4.355423 0.40627089 -0.31782955 20 22
4.3842707 0.40893692 -0.25870374 20 26
4.4024363 0.40984067 -0.19837871 20 32
4.4147935 0.4102034 -0.13744038 42 40
4.3470087 0.39095825 -0.37718135 28 18
4.3568144 0.39106518 -0.31782955 25 22
4.3757286 0.39274654 -0.2581124 28 26
4.4038401 0.39447081 -0.19837871 20 32
4.4161987 0.39479035 -0.13744038 42 40
4.3425384 0.37604854 -0.43833572 52 14
4.3433843 0.37535739 -0.37674728 33 18
4.3581529 0.37585467 -0.31782955 31 22
4.3770728 0.37747002 -0.2581124 34 26
4.40519 0.37909615 -0.19837871 25 32
4.41257 0.37894914 -0.1372842 43 40
4.3971877 0.50602579 -0.20626724 48 31
4.3289509 0.35966513 -0.43682247 55 14
4.3446684 0.36019385 -0.37674728 42 18
4.3544679 0.36023268 -0.31746423 37 22
4.3783636 0.36218888 -0.2581124 44 26
4.4064865 0.36371687 -0.19837871 31 32
4.413866 0.36354411 -0.1372842 43 40
4.4402637 0.36569586 -0.076368935 40 48
4.3989272 0.49067366 -0.20626724 49 31
4.3351398 0.34494239 -0.43732691 52 14
4.3458991 0.34502593 -0.37674728 48 18
4.3556991 0.34503058 -0.31746423 51 22
4.379601 0.34690329 -0.2581124 43 26
4.40275 0.34794384 -0.19815277 37 32
4.4151077 0.34813461 -0.1372842 45 40
4.4365287 0.34980541 -0.076282546 42 48
4.3956466 0.47478217 -0.20603257 45 31
4.326396 0.32906184 -0.43631804 47 14
4.3421092 0.32948121 -0.37631327 43 18
4.3519039 0.32945207 -0.31709889 42 22
4.3758082 0.33124104 -0.25781676 42 26
4.4039373 0.33257324 -0.19815277 46 32
4.4113126 0.33234966 -0.13712801 45 40
4.4377227 0.33431691 -0.076282546 41 48
4.3972778 0.45943561 -0.20603257 39 31
4.322556 0.31360224 -0.43581364 50 14
4.3432331 0.31432244 -0.37631327 41 18
4.3480539 0.31390435 -0.3167336 41 22
4.3719587 0.31560948 -0.25752109 31 26
4.4000893 0.31684411 -0.19792683 31 32
4.4124455 0.31694928 -0.13712801 45 40
4.433876 0.31847039 -0.076196156 38 48
4.3988547 0.44408345 -0.20603257 23 31
4.4162083 0.44582477 -0.14528078 39 39
4.3186617 0.29817346 -0.43530926 43 14
4.3393345 0.29882184 -0.37587923 34 18
4.349123 0.29872486 -0.3167336 37 22
4.3780141 0.3006843 -0.25781676 39 26
4.3961849 0.30114588 -0.19770089 25 32
4.4085393 0.30120865 -0.13697183 37 40
4.4349608 0.30299136 -0.076196156 20 48
4.4556007 0.30360273 -0.014691031 38 56
4.4003778 0.4287259 -0.20603257 17 31
4.4127641 0.42992508 -0.14511588 46 39
4.3586669 0.54452211 -0.27332085 43 25
4.314712 0.28277567 -0.43480483 32 14
4.3353806 0.28335238 -0.37544519 20 18
4.3501396 0.2835418 -0.3167336 27 22
4.3740559 0.28508002 -0.25752109 33 26
4.3972092 0.28579849 -0.19770089 20 32
4.4095635 0.2858181 -0.13697183 42 40
4.4310017 0.28718942 -0.07610976 17 48
4.451643 0.28772959 -0.014674449 41 56
4.3968749 0.41289914 -0.20579791 23 31
4.414238 0.41451904 -0.14511588 49 39
4.3555875 0.5287047 -0.27300781 50 25
4.3206382 0.26801652 -0.43530926 28 14
4.3413148 0.26852056 -0.37587923 23 18
4.3511028 0.26835522 -0.3167336 25 22
4.3700423 0.26950699 -0.25722542 28 26
4.3981805 0.27044761 -0.19770089 30 32
4.4105344 0.2704241 -0.13697183 36 40
4.4319773 0.27172059 -0.07610976 23 48
4.4526205 0.27218869 -0.014674449 41 56
4.3982892 0.39754865 -0.20579791 25 31
4.4106803 0.39866111 -0.14495097 48 39
4.3673186 0.51466209 -0.27363396 55 25
4.3215475 0.25293303 -0.43530926 34 14
4.3905306 0.51738888 -0.21368581 8 30
4.3422256 0.25336492 -0.37587923 28 18
4.3569908 0.25345069 -0.31709889 30 22
4.3759394 0.25453663 -0.25752109 28 26
4.4040847 0.2553784 -0.19792683 23 32
4.4114518 0.25502682 -0.13697183 46 40
4.4279084 0.25596419 -0.076023377 17 48
4.4485521 0.25636107 -0.014657869 40 56
4.3996501 0.38219336 -0.20579791 28 31
4.412045 0.38326254 -0.14495097 52 39
4.4393358 0.37625089 -0.084082022 78 47
4.3641295 0.49884918 -0.27332085 46 25
4.3224039 0.23784646 -0.43530926 42 14
4.3873472 0.50149453 -0.21344243 49 30
4.3381095 0.23793767 -0.37544519 33 18
4.35287 0.23797251 -0.3167336 34 22
4.3718171 0.23899204 -0.25722542 35 26
4.3949738 0.23946868 -0.19747494 25 32
4.3973441 0.2388261 -0.13650329 40 40
4.4287748 0.24050635 -0.076023377 23 48
4.444427 0.24056512 -0.014641288 42 56
4.4591789 0.24135114 0.047163136 33 64
4.4009576 0.36683336 -0.20579791 30 31
4.4133563 0.36785927 -0.14495097 54 39
4.4406219 0.3607524 -0.084082022 52 47
4.3658442 0.48361248 -0.27332085 51 25
4.3281755 0.22300866 -0.43581364 47 14
4.389071 0.48617673 -0.21344243 43 30
4.3438883 0.22304451 -0.37587923 42 18
4.3486943 0.22252615 -0.31636828 43 22
4.3726254 0.22373009 -0.25722542 46 26
4.3957825 0.22412592 -0.19747494 32 32
4.3981509 0.22347505 -0.13650329 43 40
4.4345798 0.22529499 -0.07610976 29 48
4.4452395 0.22504972 -0.014641288 43 56
4.4500079 0.22528709 0.047056679 53 64
4.4022112 0.35146892 -0.20579791 35 31
4.4096322 0.35205683 -0.14478606 55 39
4.4368701 0.34486511 -0.083986901 50 47
4.3532948 0.4676196 -0.33335412 49 21
4.3724685 0.46890023 -0.27363396 43 25
4.3239594 0.20766485 -0.43530926 48 14
4.3907418 0.47085309 -0.21344243 41 30
4.3396654 0.20764638 -0.37544519 49 18
4.3494444 0.20734502 -0.31636828 47 22
4.3683934 0.20823203 -0.25692976 43 26
4.3965383 0.20878041 -0.19747494 38 32
4.4038963 0.20835324 -0.13665947 45 40
4.430346 0.20958206 -0.076023377 32 48
4.4410033 0.20930038 -0.014624706 43 56
4.4557605 0.20998342 0.047109906 51 64
4.3984313 0.33572313 -0.20556326 43 31
4.4108338 0.33666223 -0.14478606 52 39
4.4380469 0.32937545 -0.083986901 45 47
4.3449821 0.4513942 -0.33258864 35 21
4.3740788 0.45363459 -0.27363396 38 25
4.3196878 0.19235316 -0.43480483 44 14
4.3923588 0.45552364 -0.21344243 39 30
4.3353868 0.19228044 -0.37501112 43 18
4.4148607 0.45707023 -0.15296453 37 38
4.3451591 0.19194557 -0.31600294 42 22
4.3690934 0.1929822 -0.25692976 42 26
4.3922501 0.19321708 -0.19724898 42 32
4.4045968 0.19297948 -0.13665947 47 40
4.4260554 0.19390139 -0.075936988 41 48
4.4367113 0.19358337 -0.014608124 43 56
4.4464765 0.1940012 0.047003444 40 64
4.3995762 0.32036769 -0.20556326 37 31
4.4069977 0.32090354 -0.14462116 52 39
4.3187952 0.31377697 -0.51584524 36 10
4.4341826 0.31353214 -0.083891787 28 47
4.3564529 0.43721673 -0.33335412 41 21
4.4448977 0.31428331 -0.022372155 42 55
4.3756351 0.43836346 -0.27363396 34 25
4.3203325 0.17727344 -0.43480483 47 14
4.3889532 0.43969277 -0.21319906 20 30
4.3360314 0.17714594 -0.37501112 40 18
4.4064841 0.44066584 -0.15261729 34 38
4.3408198 0.1765786 -0.31563762 41 22
4.3697405 0.17773005 -0.25692976 28 26
4.3729334 0.17709272 -0.19634521 27 32
4.4002495 0.17740633 -0.13650329 45 40
4.42171 0.17825326 -0.075850591 34 48
4.4373598 0.17809518 -0.014608124 43 56
4.4471264 0.17847891 0.047003444 32 64
4.3956852 0.30466607 -0.2053286 23 31
4.4080911 0.30551833 -0.14462116 43 39
4.3099589 0.2980209 -0.51465261 28 10
4.4352493 0.29805207 -0.083891787 20 47
4.3480272 0.42104977 -0.33258864 34 21
4.4459677 0.29876584 -0.022372155 46 55
4.3721714 0.42260864 -0.27332085 26 25
4.3209252 0.1621916 -0.43480483 42 14
4.3904614 0.42436975 -0.21319906 17 30
4.3366237 0.1620093 -0.37501112 30 18
4.4129701 0.42575976 -0.15279092 37 38
4.3414102 0.16142522 -0.31563762 36 22
4.3653464 0.16229457 -0.25663409 28 26
4.3685336 0.16164684 -0.19611926 20 32
4.4008417 0.16204549 -0.13650329 43 40
4.3483071 0.41724703 -0.39349622 37 17
4.4173088 0.1626378 -0.075764202 14 48
4.4329576 0.16242598 -0.014591544 42 56
4.447722 0.16295446 0.047003444 17 64
4.3967218 0.28932038 -0.2053286 23 31
4.4666748 0.16207166 0.10913052 43 70
4.4041443 0.28980428 -0.14445627 38 39
4.3159266 0.28329659 -0.51524889 28 10
4.4362631 0.28256837 -0.083891787 23 47
4.3494706 0.40586978 -0.33258864 20 21
4.4419932 0.28292987 -0.022346847 37 55
4.37362 0.40734434 -0.27332085 28 25
4.316494 0.14694284 -0.43430039 34 14
4.3968883 0.40950283 -0.21344243 23 30
4.3321848 0.14670642 -0.37457711 23 18
4.4094529 0.40989226 -0.15261729 44 38
4.3419466 0.14626989 -0.31563762 28 22
4.360898 0.14689195 -0.25633845 23 26
4.38904 0.1470488 -0.19702306 17 32
4.3963857 0.14652048 -0.1363471 39 40
4.3398204 0.40115306 -0.3925916 32 17
4.4178495 0.14721753 -0.075764202 25 48
4.4285007 0.14678964 -0.014574963 41 56
4.4432673 0.14726661 0.046950214 20 64
4.3977046 0.2739712 -0.2053286 23 31
4.472209 0.14663869 0.10925356 41 70
4.4051285 0.2744292 -0.14445627 35 39
4.3119345 0.26792473 -0.51465261 28 10
4.383431 0.53177053 -0.22108628 43 29
4.4322324 0.2667838 -0.083796665 23 47
4.3558273 0.3911289 -0.33297139 23 21
4.4429541 0.26742268 -0.022346847 35 55
4.3700452 0.39163151 -0.27300781 28 25
4.3169804 0.13187458 -0.43430039 28 14
4.3982906 0.39415234 -0.21344243 23 30
4.3376489 0.13173026 -0.37501112 25 18
4.4058805 0.39405459 -0.15244366 41 38
4.3424311 0.13111277 -0.31563762 25 22
4.3613844 0.13166867 -0.25633845 23 26
4.3845344 0.13158174 -0.1967971 32 32
4.3968701 0.13117334 -0.1363471 42 40
4.3461537 0.38644099 -0.39304391 37 17
4.4183364 0.13179545 -0.075764202 23 48
4.4289861 0.1313304 -0.014574963 31 56
4.4437542 0.13175581 0.046950214 20 64
4.3986344 0.25861865 -0.2053286 25 31
4.4676971 0.13088469 0.10913052 40 70
4.4060602 0.25905073 -0.14445627 37 39
4.4379311 0.39144489 -0.091794848 38 46
4.3177986 0.25315908 -0.51524889 33 10
4.3951793 0.5176332 -0.22159049 51 29
4.4281454 0.25103089 -0.083701558 28 47
4.3521981 0.37549511 -0.33258864 40 21
4.4438601 0.25191224 -0.022346847 38 55
4.3713856 0.37637484 -0.27300781 33 25
4.3174143 0.11680469 -0.43430039 36 14
4.4487782 0.25140914 0.039342694 80 63
4.3946643 0.37837052 -0.21319906 25 30
4.3380823 0.11658823 -0.37501112 29 18
4.4072289 0.37867281 -0.15244366 53 38
4.3428621 0.11595406 -0.31563762 31 22
4.3618169 0.1164438 -0.25633845 30 26
4.3899598 0.11640421 -0.19702306 25 32
4.3365684 0.37110266 -0.45290077 88 13
4.3923059 0.11569729 -0.13619094 32 40
4.3375535 0.37042403 -0.39213935 39 17
4.4187698 0.11637178 -0.075764202 23 48
4.4294176 0.11586956 -0.014574963 37 56
4.4441872 0.11624342 0.046950214 23 64
4.3995104 0.24326301 -0.2053286 25 31
4.46313 0.11516398 0.10900749 30 70
4.4069376 0.24366914 -0.14445627 49 39
4.4342895 0.37553114 -0.09169101 47 46
4.3137002 0.23781544 -0.51465261 48 10
4.3870363 0.50115567 -0.22108628 52 29
4.4240022 0.23530975 -0.083606444 29 47
4.3534822 0.36030078 -0.33258864 44 21
4.4397192 0.23613618 -0.022321537 46 55
4.372673 0.36111355 -0.27300781 38 25
4.3227692 0.10184625 -0.43480483 52 14
4.4546213 0.23614012 0.039387196 51 63
4.3959584 0.36302799 -0.21319906 30 30
4.3384633 0.10144479 -0.37501112 32 18
4.408524 0.36328641 -0.15244366 54 38
4.3382554 0.10068256 -0.31527233 49 22
4.3621969 0.10121751 -0.25633845 37 26
4.3903394 0.10107967 -0.19702306 29 32
4.3229694 0.3547484 -0.45133546 55 13
4.3876867 0.10025468 -0.13603474 42 40
4.3388205 0.35528088 -0.39213935 44 17
4.4191494 0.10094669 -0.075764202 25 48
4.4247961 0.10029823 -0.01455838 42 56
4.4395661 0.10062053 0.046896979 23 64
4.3953447 0.22764905 -0.20509394 32 31
4.4077616 0.22828458 -0.14445627 55 39
4.4355731 0.36005029 -0.09169101 50 46
4.3095455 0.22250348 -0.51405621 28 10
4.393723 0.48638788 -0.22133839 40 29
4.42979 0.22011074 -0.083701558 32 47
4.3547134 0.34510213 -0.33258864 38 21
4.4405165 0.22063723 -0.022321537 54 55
4.3739066 0.34584785 -0.27300781 44 25
4.3181248 0.086660847 -0.43430039 45 14
4.4504251 0.22034496 0.039342694 49 63
4.3971987 0.34768099 -0.21319906 31 30
4.3338108 0.086205363 -0.37457711 41 18
4.4097648 0.34789556 -0.15244366 51 38
4.3335948 0.085444614 -0.31490698 53 22
4.3575335 0.085895903 -0.25604278 46 26
4.3906655 0.08575391 -0.19702306 36 32
4.3340964 0.34043136 -0.45237902 50 13
4.3830128 0.084845729 -0.13587856 43 40
4.3400335 0.34013343 -0.39213935 54 17
4.4144764 0.085427895 -0.07567782 30 48
4.4251194 0.084852204 -0.01455838 45 56
4.4248943 0.084848084 0.046737287 29 64
4.396112 0.21230505 -0.20509394 37 31
4.4035397 0.21265921 -0.14429136 54 39
4.4318185 0.34417978 -0.091587164 45 46
4.3202133 0.20793015 -0.51524889 51 10
4.3953938 0.47104797 -0.22133839 39 29
4.4080062 0.47239804 -0.15969807 39 37
4.4305315 0.20464654 -0.083701558 45 47
4.3509202 0.32952458 -0.33220592 43 21
4.436265 0.20490791 -0.022296229 54 55
4.3701115 0.33020383 -0.27269471 41 25
4.3184009 0.07158725 -0.43430039 45 14
4.4511671 0.20480873 0.039342694 45 63
4.3934054 0.33195531 -0.21295568 38 30
4.3291044 0.070999645 -0.37414306 49 18
4.4059691 0.33212665 -0.15227003 49 38
4.3388524 0.070393614 -0.31527233 47 22
4.3578067 0.070684753 -0.25604278 43 26
4.3859439 0.070351265 -0.1967971 37 32
4.3253407 0.32455996 -0.45133546 42 13
4.3932762 0.069695659 -0.13619094 43 40
4.3362288 0.32461193 -0.39168704 44 17
4.4097495 0.069942936 -0.075591423 33 48
4.4253888 0.069405138 -0.01455838 45 56
4.4351625 0.069550142 0.046843752 32 64
4.3918371 0.196738 -0.20485926 43 31
4.399262 0.19706608 -0.14412645 54 39
4.4329925 0.32870778 -0.091587164 41 46
4.3159533 0.19263026 -0.51465261 43 10
4.4537849 0.33024198 -0.030154441 33 54
4.3970118 0.4557023 -0.22133839 42 29
4.4096284 0.45700836 -0.15969807 49 37
4.4262238 0.18896964 -0.083606444 39 47
4.3520441 0.31433499 -0.33220592 37 21
4.4369531 0.18942122 -0.022296229 46 55
4.3662596 0.31459048 -0.27238163 36 25
4.3136497 0.056452006 -0.43379596 43 14
4.4418635 0.18885124 0.039253678 41 63
4.3895559 0.3162604 -0.2127123 23 30
4.3293262 0.055887811 -0.37414306 42 18
4.4071021 0.31674495 -0.15227003 47 38
4.3340855 0.055188578 -0.31490698 42 22
4.3530354 0.055413496 -0.25574711 43 26
4.3811684 0.054982629 -0.19657116 41 32
4.3214869 0.30910677 -0.45081365 42 13
4.3934932 0.054359838 -0.13619094 40 40
4.3373356 0.30947363 -0.39168704 38 17
4.4099665 0.054549612 -0.075591423 42 48
4.4206042 0.053900506 -0.014541799 47 56
4.4203796 0.053897958 0.046684053 40 64
4.3924971 0.18140642 -0.20485926 34 31
4.3999233 0.18170859 -0.14412645 52 39
4.4291263 0.31288129 -0.091483317 39 46
4.3116393 0.17736264 -0.51405621 37 10
4.449923 0.3143428 -0.030120406 43 54
4.3985753 0.4403511 -0.22133839 20 29
4.4062247 0.44111598 -0.15951659 47 37
4.4218612 0.17332532 -0.083511323 20 47
4.3481417 0.29880169 -0.33182323 40 21
4.4325919 0.17373942 -0.022270923 43 55
4.367331 0.29934746 -0.27238163 33 25
4.308847 0.041350812 -0.43329158 46 14
4.4474921 0.17353702 0.039298188 23 63
4.3906331 0.30093604 -0.2127123 23 30
4.3245139 0.040732704 -0.37370902 38 18
4.4031954 0.30102038 -0.15209642 44 38
4.3342519 0.040059462 -0.31490698 40 22
4.3532023 0.040218227 -0.25574711 31 26
4.3813338 0.039689161 -0.19657116 36 32
4.3175783 0.29368451 -0.45029193 30 13
4.3836608 0.038943104 -0.13587856 34 40
4.3334212 0.29399645 -0.39123473 34 17
4.4051309 0.039115481 -0.075505033 25 48
4.4157662 0.038430117 -0.014525219 39 56
4.388113 0.16588704 -0.20462462 27 31
4.3955374 0.16616316 -0.14396153 41 39
4.4301915 0.29741883 -0.091483317 17 46
4.3122325 0.16231114 -0.51405621 25 10
4.4509931 0.29880777 -0.030120406 43 54
4.3951144 0.42451504 -0.22108628 17 29
4.4127111 0.42621249 -0.15969807 42 37
4.4174433 0.15771374 -0.083416209 25 47
4.3491583 0.28362203 -0.33182323 23 21
4.428174 0.15809035 -0.022245614 39 55
4.3683491 0.2841008 -0.27238163 28 25
4.3089647 0.026309878 -0.43329158 42 14
4.4480705 0.15801133 0.039298188 20 63
4.3916569 0.28560805 -0.2127123 25 30
4.3196487 0.025611876 -0.37327495 20 18
4.3992329 0.28532693 -0.15192278 39 38
4.3293786 0.024905484 -0.31454167 35 22
4.3483253 0.024998078 -0.25545144 31 26
4.2987003 0.27733663 -0.5358327 43 9
4.3714552 0.024348132 -0.19611926 17 32
4.3235393 0.27892983 -0.45081365 20 13
4.38377 0.023641037 -0.13587856 42 40
4.3344207 0.27886817 -0.39123473 28 17
4.4002414 0.023715785 -0.075418636 20 48
4.4108734 0.022994172 -0.014508638 43 56
4.3786817 0.15023223 -0.20415528 29 31
4.39609 0.15081884 -0.14396153 46 39
4.4312029 0.28195277 -0.091483317 17 46
4.3127728 0.14725763 -0.51405621 23 10
4.4470191 0.28295341 -0.030086374 42 54
4.3965697 0.40917063 -0.22108628 28 29
4.4091969 0.41034424 -0.15951659 33 37
4.4179664 0.14229302 -0.083416209 23 47
4.3501215 0.26843894 -0.33182323 25 21
4.4286985 0.14263217 -0.022245614 33 55
4.3693147 0.26885068 -0.27238163 39 25
4.3040557 0.01125994 -0.43278718 34 14
4.4386005 0.14216959 0.039209172 20 63
4.3876424 0.26997167 -0.21246892 23 30
4.3197117 0.010533333 -0.37327495 23 18
4.4051895 0.27027318 -0.15209642 35 38
4.3244524 0.0097860172 -0.31417632 17 22
4.4367833 0.40275648 -0.099507399 32 45
4.3483863 0.0098194387 -0.25545144 20 26
4.2996426 0.26232967 -0.5358327 39 9
4.3715134 0.0090887593 -0.19611926 17 32
4.3244867 0.26383618 -0.45081365 25 13
4.378828 0.0083334455 -0.13572237 39 40
4.3353677 0.26373652 -0.39123473 30 17
4.4002972 0.0083559304 -0.075418636 20 48
4.4109268 0.0075972099 -0.014508638 43 56
4.389164 0.13524844 -0.20462462 20 31
4.3965902 0.13547271 -0.14396153 34 39
4.4271708 0.2661851 -0.091379486 17 46
4.3082981 0.13205336 -0.51345986 28 10
4.4479799 0.2674287 -0.030086374 34 54
4.45296 0.2677263 0.031664364 29 62
4.3979712 0.39382124 -0.22108628 23 29
4.4106021 0.39495075 -0.15951659 38 37
4.3361802 0.51498371 -0.28687349 54 24
4.3845444 0.51918167 -0.22872949 50 28
4.4184365 0.12687057 -0.083416209 25 47
4.356009 0.25354034 -0.33220592 25 21
4.4241719 0.12703177 -0.022220306 32 55
4.3752084 0.25388458 -0.27269471 29 25
4.3040686 -0.0037646855 -0.43278718 30 14
4.4390697 0.12667513 0.039209172 22 63
4.3935437 0.25494179 -0.2127123 23 30
4.3197222 -0.004545941 -0.37327495 23 18
4.4061065 0.25489455 -0.15209642 43 38
4.3294468 -0.005320244 -0.31454167 28 22
4.4331818 0.3868328 -0.099394828 53 45
4.3483939 -0.0053599267 -0.25545144 23 26
4.3005319 0.24731952 -0.5358327 51 9
4.3765135 -0.0061826669 -0.19634521 20 32
4.3253813 0.24873927 -0.45081365 31 13
4.3838286 -0.0069643892 -0.13587856 29 40
4.3362622 0.24860166 -0.39123473 36 17
4.4052992 -0.0070168516 -0.075505033 17 48
4.4059262 -0.0077873673 -0.014492055 40 56
4.3846169 0.1197932 -0.20438994 25 31
4.3970361 0.12012493 -0.14396153 39 39
4.4280729 0.25072977 -0.091379486 20 46
4.308733 0.11701378 -0.51345986 33 10
4.4438939 0.25161985 -0.03005234 36 54
4.4488754 0.25190011 0.031628586 49 62
4.3993192 0.37846705 -0.22108628 23 29
4.4069757 0.37912479 -0.15933511 52 37
4.3577766 0.50213128 -0.28819552 54 24
4.3912911 0.504444 -0.2289903 50 28
4.4138551 0.11132358 -0.083321095 28 47
4.3518896 0.23806304 -0.33182323 30 21
4.4245877 0.11158776 -0.022220306 40 55
4.3710852 0.23834082 -0.27238163 34 25
4.3090043 -0.018814715 -0.43329158 37 14
4.4394851 0.11117911 0.039209172 28 63
4.38942 0.23933382 -0.21246892 28 30
4.3196797 -0.019624559 -0.37327495 29 18
4.3919997 0.23870473 -0.15157552 55 38
4.3294015 -0.0204328 -0.31454167 32 22
4.434505 0.37135574 -0.099394828 47 45
4.3483486 -0.020538621 -0.25545144 32 26
4.2964149 0.23204063 -0.53521037 54 9
4.3764653 -0.021459512 -0.19634521 25 32
4.3212581 0.23337305 -0.45029193 38 13
4.3787799 -0.022237107 -0.13572237 35 40
4.3371038 0.23346376 -0.39123473 37 17
4.4002485 -0.022364506 -0.075418636 25 48
4.3900013 0.10460323 -0.20462462 28 31
4.3924332 0.10465968 -0.14379665 49 39
4.4189367 0.23474464 -0.091171801 28 46
4.3091149 0.1019728 -0.51345986 42 10
4.4447455 0.23610625 -0.03005234 43 54
4.4497275 0.2363691 0.031628586 39 62
4.4006133 0.36310825 -0.22108628 28 29
4.4132519 0.36414957 -0.15951659 70 37
4.3446283 0.48525354 -0.287204 50 24
4.3880625 0.48855934 -0.22872949 48 28
4.414217 0.095915675 -0.083321095 29 47
4.3477154 0.22261758 -0.33144048 34 21
4.4249506 0.096142389 -0.022220306 46 55
4.3669062 0.22282897 -0.27206853 39 25
4.3039374 -0.033812419 -0.43278718 52 14
4.4398456 0.095681742 0.039209172 33 63
4.3902287 0.22401042 -0.21246892 30 30
4.3195853 -0.034702934 -0.37327495 33 18
4.3878164 0.22312042 -0.15140191 51 38
4.3293042 -0.035545111 -0.31454167 37 22
4.4307914 0.35547501 -0.099282265 70 45
4.3482509 -0.035717066 -0.25545144 39 26
4.317018 0.21803555 -0.5376997 54 9
4.3713689 -0.036689892 -0.19611926 31 32
4.3270121 0.2185366 -0.45081365 51 13
4.3786755 -0.037521765 -0.13572237 43 40
4.3378921 0.21832302 -0.39123473 42 17
4.3951445 -0.037676986 -0.075332254 29 48
4.3853459 0.089180127 -0.20438994 33 31
4.3927717 0.089326598 -0.14379665 52 39
4.4297152 0.21981014 -0.091379486 29 46
4.3144083 0.087027587 -0.51405621 39 10
4.4405489 0.22034378 -0.030018304 45 54
4.4505253 0.22083521 0.031628586 49 62
4.4018545 0.34774503 -0.22108628 38 29
4.4095154 0.3483493 -0.15933511 71 37
4.356216 0.47115919 -0.28786501 58 24
4.3897409 0.47323915 -0.22872949 50 28
4.4074774 0.47437522 -0.16813959 12 36
4.414525 0.080506593 -0.083321095 42 47
4.3434858 0.20720413 -0.33105776 43 21
4.4252591 0.080695838 -0.022220306 56 55
4.3626728 0.20734918 -0.27175546 44 25
4.3037934 -0.048835754 -0.43278718 49 14
4.4301548 0.0800087 0.039120164 36 63
4.3859959 0.20844908 -0.21222556 32 30
4.3194375 -0.04978089 -0.37327495 42 18
4.398551 0.20827174 -0.15174915 49 38
4.3291535 -0.050656982 -0.31454167 54 22
4.4320049 0.3400065 -0.099282265 69 45
4.3431087 -0.050832354 -0.2551558 49 26
4.3127975 0.20273392 -0.53707743 55 9
4.4479737 0.34044874 -0.037843257 37 53
4.3712144 -0.051948596 -0.19611926 36 32
4.322782 0.20319955 -0.45029193 49 13
4.3685241 -0.052676883 -0.13541001 43 40
4.3336535 0.20294853 -0.39078242 53 17
4.3999853 -0.053083241 -0.075418636 30 48
4.3856301 0.073871873 -0.20438994 33 31
4.3930564 0.073992431 -0.14379665 54 39
4.4254618 0.20411769 -0.091275647 33 46
4.3097219 0.071887255 -0.51345986 47 10
4.436296 0.20461346 -0.029984269 49 54
4.4512696 0.20529863 0.031628586 43 62
4.4030414 0.33237755 -0.22108628 37 29
4.4107041 0.33295509 -0.15933511 69 37
4.3484583 0.45496818 -0.34810916 37 20
4.3627958 0.45647007 -0.28819552 45 24
4.3913665 0.45791322 -0.22872949 43 28
4.3991675 0.45795155 -0.16775745 43 36
4.4097805 0.065025866 -0.08322598 42 47
4.344183 0.19204128 -0.33105776 43 21
4.4205146 0.065177619 -0.022194998 56 55
4.3633699 0.19211936 -0.27175546 41 25
4.303597 -0.063858502 -0.43278718 50 14
4.4354067 0.064613886 0.03916467 39 63
4.3817077 0.19291998 -0.21198218 42 30
4.3142571 -0.064779133 -0.37284097 48 18
4.399251 0.19291666 -0.15174915 51 38
4.3239641 -0.06568817 -0.31417632 46 22
4.4281797 0.32416949 -0.099169694 39 45
4.3429046 -0.065992318 -0.2551558 43 26
4.3035655 0.18725061 -0.5358327 52 9
4.444149 0.3245568 -0.037800498 49 53
4.3660126 -0.067125604 -0.19589333 36 32
4.3184962 0.18789467 -0.44977015 42 13
4.3683133 -0.067925565 -0.13541001 45 40
4.3343353 0.18782002 -0.39078242 42 17
4.3947744 -0.068359725 -0.075332254 33 48
4.3808675 0.058499083 -0.20415528 41 31
4.3882909 0.058593668 -0.14363174 49 39
4.426147 0.18866868 -0.091275647 43 46
4.3099465 0.056843076 -0.51345986 44 10
4.4369831 0.18912664 -0.029984269 43 54
4.441968 0.1893373 0.031557027 41 62
4.3942137 0.31629029 -0.22058211 41 29
4.4661036 0.18957648 0.093653515 43 69
4.4118395 0.31755683 -0.15933511 46 37
4.3401031 0.4387826 -0.34730887 20 20
4.3643632 0.44123828 -0.28819552 39 24
4.3979063 0.44308284 -0.2289903 36 28
4.4057107 0.44309333 -0.16794853 39 36
4.4099803 0.04963246 -0.08322598 31 47
4.3398447 0.17667513 -0.33067501 36 21
4.4157152 0.049693521 -0.022169692 46 55
4.3590283 0.17668691 -0.27144238 34 25
4.2983742 -0.078784972 -0.43228275 44 14
4.4306059 0.049078681 0.039120164 41 63
4.3773637 0.17742334 -0.2117388 20 30
4.3090248 -0.079741806 -0.3724069 41 18
4.3949046 0.17735955 -0.15157552 46 38
4.3187237 -0.080683753 -0.31381103 42 22
4.4242978 0.30836335 -0.099057138 25 45
4.3376575 -0.08105392 -0.25486013 42 26
4.3141074 0.17262022 -0.53707743 51 9
4.4452548 0.30904189 -0.037800498 43 53
4.3657517 -0.082365416 -0.19589333 33 32
4.3240948 0.17301612 -0.45029193 35 13
4.3680496 -0.083173402 -0.13541001 45 40
4.3349648 0.17268923 -0.39078242 38 17
4.37605 0.043160446 -0.20392062 30 31
4.3884683 0.043275323 -0.14363174 46 39
4.4167876 0.1728301 -0.091067962 33 46
4.3051543 0.041753151 -0.51286346 37 10
4.4326205 0.17344387 -0.029950237 43 54
4.447598 0.17402449 0.031592805 31 62
4.3952909 0.30094969 -0.22058211 20 29
4.4617429 0.17379293 0.093547925 43 69
4.4079361 0.30181399 -0.15915364 39 37
4.3564892 0.42508405 -0.34850928 17 20
4.3658767 0.42600116 -0.28819552 34 24
4.3944559 0.42724478 -0.22872949 20 28
4.4072304 0.42771187 -0.16794853 42 36
4.4001279 0.034166902 -0.083035745 20 47
4.3404355 0.16152516 -0.33067501 39 21
4.4158621 0.034279499 -0.022169692 41 55
4.3596187 0.16147 -0.27144238 33 25
4.2980733 -0.093788616 -0.43228275 46 14
4.3679748 0.16177641 -0.21125202 20 30
4.3087201 -0.094782628 -0.3724069 37 18
4.3954968 0.16201741 -0.15157552 43 38
4.3184156 -0.095758431 -0.31381103 40 22
4.430335 0.29324734 -0.099169694 20 45
4.3373485 -0.096194685 -0.25486013 28 26
4.3097262 0.15738094 -0.53645509 48 9
4.4413171 0.29319438 -0.037757736 42 53
4.3554502 -0.097372346 -0.19544144 26 32
4.3246727 0.15792117 -0.45029193 23 13
4.3477483 -0.097952746 -0.13478529 45 40
4.3305655 0.15737733 -0.39033017 42 17
4.3761744 0.027884914 -0.20392062 17 31
4.3835959 0.027927659 -0.14346683 36 39
4.4123693 0.15723541 -0.090964124 20 46
4.305274 0.026725106 -0.51286346 30 10
4.4331989 0.15797009 -0.029950237 42 54
4.4481783 0.15849842 0.031592805 14 62
4.3963146 0.28560546 -0.22058211 31 29
4.4473348 0.15769149 0.093231179 39 69
4.4039769 0.28610229 -0.15897217 39 37
4.3430605 0.40847254 -0.34730887 23 20
4.3623695 0.41029102 -0.28786501 27 24
4.3909492 0.41143629 -0.2284687 17 28
4.4037218 0.41185924 -0.16775745 38 36
4.4002204 0.018807381 -0.083035745 20 47
4.3409724 0.14637323 -0.33067501 25 21
4.4109545 0.018846726 -0.022144383 51 55
4.3601561 0.14625111 -0.27144238 28 25
4.2977195 -0.10879112 -0.43228275 42 14
4.3784957 0.14685951 -0.2117388 20 30
4.3033834 -0.10969102 -0.37197286 17 18
4.3910422 0.14650849 -0.15140191 34 38
4.3080859 -0.11056738 -0.31308037 31 22
4.426343 0.27746865 -0.099057138 27 45
4.3319969 -0.11120187 -0.25456446 37 26
4.3052907 0.14217432 -0.5358327 36 9
4.4423137 0.27768952 -0.037757736 28 53
4.3550839 -0.11257511 -0.19544144 17 32
4.3202276 0.14266199 -0.44977015 17 13
4.4574299 0.27785158 0.023968488 23 61
4.3573709 -0.11339724 -0.13509764 43 40
4.3360648 0.14242148 -0.39078242 29 17
4.3712511 0.012597713 -0.20368595 20 31
4.3786697 0.012614546 -0.14330192 38 39
4.4128914 0.14183241 -0.090964124 20 46
4.3003769 0.011686333 -0.51226717 25 10
4.4287257 0.14233556 -0.029916201 40 54
4.4387097 0.14265281 0.031521246 20 62
4.3923001 0.26995194 -0.22033001 28 29
4.4478583 0.14216644 0.093231179 28 69
4.4049487 0.27072778 -0.15897217 31 37
4.3341846 0.39314106 -0.40720689 40 16
4.3494234 0.39375991 -0.347709 23 20
4.3687444 0.39551145 -0.28819552 24 24
4.3923593 0.39610651 -0.2284687 20 28
4.4051328 0.39648494 -0.16775745 44 36
4.4369798 0.3985745 -0.10721964 42 44
4.4052596 0.0034485036 -0.083130866 23 47
4.3364749 0.13107078 -0.33029231 23 21
4.4109941 0.0034495052 -0.022144383 49 55
4.3556514 0.13088238 -0.27112931 33 25
4.2923412 -0.12364472 -0.43177831 33 14
4.3789821 0.13157481 -0.2117388 25 30
4.3029742 -0.12471196 -0.37197286 23 18
4.3915267 0.13118 -0.15140191 40 38
4.3126574 -0.1257544 -0.31344572 20 22
4.4222946 0.26172143 -0.098944567 29 45
4.3315821 -0.12632269 -0.25456446 20 26
4.3057609 0.1271452 -0.5358327 36 9
4.4432564 0.26218125 -0.037757736 29 53
4.3546643 -0.1277765 -0.19544144 30 32
4.3206992 0.12758072 -0.44977015 25 13
4.4583721 0.26229057 0.023968488 49 61
4.3419623 -0.12815139 -0.1346291 40 40
4.3265805 0.12699643 -0.38987786 29 17
4.3201809 0.25342068 -0.57641596 43 8
4.3712678 -0.0026614852 -0.20368595 20 31
4.3786864 -0.0026705489 -0.14330192 36 39
4.4133592 0.12642768 -0.090964124 20 46
4.3003912 -0.0033254535 -0.51226717 25 10
4.4291954 0.12687556 -0.029916201 31 54
4.4341826 0.1270166 0.031485472 20 62
4.3932152 0.25461832 -0.22033001 20 29
4.4483275 0.12663963 0.093231179 23 69
4.4058666 0.25535002 -0.15897217 37 37
4.3454475 0.37887552 -0.40814623 56 16
4.3557363 0.37900785 -0.34810916 20 20
4.3651276 0.37982619 -0.28786501 28 24
4.3937149 0.38077185 -0.2284687 23 28
4.4064898 0.38110569 -0.16775745 34 36
4.4283834 0.38222322 -0.10697706 50 44
4.4002452 -0.011912775 -0.083035745 23 47
4.336906 0.11593284 -0.33029231 25 21
4.4059796 -0.011931792 -0.022119075 36 55
4.3610706 0.11580817 -0.27144238 28 25
4.286912 -0.13846211 -0.43127394 30 14
4.3794146 0.11628852 -0.2117388 25 30
4.3025126 -0.13973138 -0.37197286 23 18
4.3919578 0.1158499 -0.15140191 49 38
4.3121924 -0.14080761 -0.31344572 28 22
4.4231811 0.24628316 -0.098944567 29 45
4.3261261 -0.14127472 -0.25426883 28 26
4.3061786 0.11211452 -0.5358327 49 9
4.4391522 0.24639331 -0.037714977 36 53
4.3491998 -0.14280812 -0.19521549 23 32
4.3211179 0.1124979 -0.44977015 32 13
4.449276 0.24617511 0.023914386 49 61
4.3269973 0.11189308 -0.38987786 36 17
4.3358831 0.2391558 -0.57841277 51 8
4.371232 -0.017920043 -0.20368595 25 31
4.3786507 -0.017955001 -0.14330192 42 39
4.413774 0.11102141 -0.090964124 23 46
4.3003535 -0.0183366 -0.51226717 32 10
4.4296117 0.11141401 -0.029916201 41 54
4.4395971 0.11166154 0.031521246 25 62
4.3990641 0.23955253 -0.22058211 23 29
4.4487424 0.11111131 0.093231179 23 69
4.4067316 0.2399691 -0.15897217 54 37
4.3318629 0.36245772 -0.40673721 57 16
4.3520665 0.36338583 -0.347709 28 20
4.3664274 0.36458671 -0.28786501 32 24
4.3950176 0.36543262 -0.2284687 28 28
4.4127727 0.3661356 -0.16794853 46 36
4.4346719 0.36717603 -0.10709835 54 44
4.3951778 -0.027238401 -0.082940638 25 47
4.3372841 0.10079352 -0.33029231 30 21
4.3614483 0.10058448 -0.27144238 33 25
4.2864022 -0.15342538 -0.43127394 37 14
4.3797936 0.1010008 -0.2117388 28 30
4.3019986 -0.15474911 -0.37197286 29 18
4.3923354 0.10051842 -0.15140191 49 38
4.3066916 -0.15567467 -0.31308037 32 22
4.4190221 0.230582 -0.098832004 30 45
4.3256068 -0.15637487 -0.25426883 34 26
4.3065438 0.097082458 -0.5358327 52 9
4.4399853 0.23089629 -0.037714977 49 53
4.3287091 -0.15724622 -0.19431171 28 32
4.3214846 0.097413689 -0.44977015 41 13
4.455101 0.2309009 0.023941435 47 61
4.3323402 0.096897863 -0.39033017 49 17
4.3119469 0.22274411 -0.57508475 26 8
4.3711429 -0.033178378 -0.20368595 30 31
4.3785615 -0.033239231 -0.14330192 49 39
4.4091368 0.095507354 -0.090860285 28 46
4.3002634 -0.033347521 -0.51226717 42 10
4.4249749 0.095844656 -0.029882167 47 54
4.4349613 0.096057333 0.031485472 32 62
4.3898988 0.22368841 -0.22007792 28 29
4.4324932 0.22585361 -0.15987954 47 37
4.3269615 0.34760168 -0.46688649 43 12
4.3430257 0.34813121 -0.40767655 55 16
4.3533077 0.34819207 -0.347709 30 20
4.3676729 0.34934279 -0.28786501 38 24
4.396266 0.35008895 -0.2284687 32 28
4.4090433 0.35033357 -0.16775745 49 36
4.4259615 0.35090256 -0.10685576 57 44
4.4150848 0.49361327 -0.17621274 71 35
4.3900571 -0.042528789 -0.082845517 30 47
4.3376093 0.085652962 -0.33029231 35 21
4.3567829 0.085263774 -0.27112931 40 25
4.2908106 -0.1685864 -0.43177831 50 14
4.3751264 0.085615985 -0.21149541 31 30
4.3014321 -0.16976494 -0.37197286 34 18
4.3926592 0.085185692 -0.15140191 44 38
4.3111038 -0.1709087 -0.31344572 38 22
4.4247923 0.21539778 -0.098944567 35 45
4.3250341 -0.17147309 -0.25426883 42 26
4.3068562 0.082049228 -0.5358327 52 9
4.440764 0.21539643 -0.037714977 54 53
4.3431063 -0.1729645 -0.19498956 30 32
4.3217978 0.082328305 -0.44977015 51 13
4.4508862 0.21510756 0.023914386 43 61
4.3276739 0.081682459 -0.38987786 49 17
4.327548 0.20840453 -0.57708162 40 8
4.3710003 -0.048436314 -0.20368595 34 31
4.3734217 -0.04846463 -0.14313702 53 39
4.4044447 0.080027021 -0.090756439 29 46
4.3001208 -0.048358042 -0.51226717 56 10
4.4252825 0.080398023 -0.029882167 49 54
4.4352698 0.080575839 0.031485472 36 62
4.3906527 0.20836344 -0.22007792 39 29
4.4232726 0.20990747 -0.15951659 42 37
4.3182359 0.33173287 -0.46580821 49 12
4.344214 0.33296913 -0.40767655 50 16
4.354497 0.3329941 -0.347709 49 20
4.3638911 0.33371365 -0.28753451 50 24
4.3924823 0.33436134 -0.22820789 41 28
4.4102392 0.334941 -0.16775745 52 36
4.4271588 0.33545092 -0.10685576 55 44
4.4481678 0.33704534 -0.044793725 42 52
4.4118137 0.47765917 -0.17601295 32 35
4.3948808 -0.057921614 -0.082940638 32 47
4.3328972 0.070432179 -0.32990959 47 21
4.3520646 0.069976859 -0.27081621 44 25
4.2852273 -0.18334614 -0.43127394 47 14
4.3753986 0.07034342 -0.21149541 44 30
4.2958369 -0.18456057 -0.37153882 45 18
4.3879333 0.069774307 -0.15122828 44 38
4.3054996 -0.185737 -0.31308037 53 22
4.4205236 0.19972605 -0.098832004 46 45
4.3194227 -0.18634978 -0.25397316 47 26
4.307116 0.067014992 -0.5358327 54 9
4.4364939 0.19966975 -0.037672214 68 53
4.3225155 -0.18724175 -0.19408579 31 32
4.3170872 0.06716641 -0.44924834 50 13
4.4516101 0.19956973 0.023914386 40 61
4.3279324 0.066575557 -0.38987786 50 17
4.3232985 0.19307682 -0.57641596 40 8
4.3658109 -0.063617818 -0.20345131 42 31
4.3682294 -0.063654542 -0.14297213 54 39
4.4046974 0.064652145 -0.090756439 38 46
4.2999258 -0.06336797 -0.51226717 47 10
4.4205365 0.064878851 -0.029848132 45 54
4.4305248 0.065021813 0.03144969 42 62
4.3913536 0.19303595 -0.22007792 42 29
4.3990188 0.19337197 -0.15860921 49 37
4.3292828 0.31738555 -0.46688649 40 12
4.3403854 0.31743926 -0.40720689 47 16
4.3456917 0.31706545 -0.34690878 46 20
4.3650298 0.31847876 -0.28753451 42 24
4.3886433 0.31866449 -0.22794707 40 28
4.4063978 0.31918278 -0.16756637 46 36
4.4283032 0.31999525 -0.10685576 50 44
4.4443312 0.3211554 -0.044743117 30 52
4.4134545 0.46225613 -0.17601295 33 35
4.384655 -0.07308951 -0.082750402 37 47
4.3331165 0.055307116 -0.32990959 42 21
4.352282 0.05478489 -0.27081621 41 25
4.2845607 -0.19830325 -0.43127394 44 14
4.3706236 0.055008985 -0.21125202 41 30
4.2901912 -0.19931921 -0.37110481 45 18
4.3881502 0.054457135 -0.15122828 44 38
4.2998438 -0.2005282 -0.31271505 44 22
4.4211946 0.18429431 -0.098832004 39 45
4.3187466 -0.20142624 -0.25397316 43 26
4.3023624 0.05192193 -0.53521037 53 9
4.432168 0.18397555 -0.037629455 43 53
4.3172951 0.052096557 -0.44924834 42 13
4.4422879 0.18361771 0.023860279 39 61
4.3281384 0.051467851 -0.38987786 49 17
4.314043 0.17757812 -0.57508475 40 8
4.3655624 -0.07885696 -0.20345131 40 31
4.3679805 -0.078902125 -0.14297213 48 39
4.4098949 0.049330585 -0.090860285 40 46
4.2996788 -0.078377128 -0.51226717 46 10
4.4157367 0.049393803 -0.0298141 42 54
4.4357243 0.049610101 0.031485472 41 62
4.3870115 0.17750481 -0.21982583 40 29
4.3996668 0.17801532 -0.15860921 46 37
4.3254051 0.30192482 -0.46634734 28 12
4.3680325 0.56383228 -0.24345729 40 27
4.3414669 0.30228657 -0.40720689 42 16
4.3517437 0.30224019 -0.34730887 43 20
4.3661146 0.30324006 -0.28753451 40 24
4.3897281 0.30334333 -0.22794707 23 28
4.407485 0.30379963 -0.16756637 44 36
4.424407 0.30419219 -0.10673448 42 44
4.445425 0.30563983 -0.044743117 42 52
4.4100709 0.44634268 -0.17581317 41 35
4.3332834 0.04018138 -0.32990959 38 21
4.3474574 0.039548714 -0.27050313 37 25
4.2788739 -0.21300626 -0.4307695 43 14
4.3657956 0.039708752 -0.21100867 34 30
4.2894692 -0.21429354 -0.37110481 41 18
4.383316 0.039096564 -0.15105465 43 38
4.2991176 -0.21553625 -0.31271505 42 22
4.4168148 0.16867018 -0.098719433 23 45
4.303062 -0.21573745 -0.25308618 43 26
4.3025179 0.036903564 -0.53521037 32 9
4.4327836 0.16850325 -0.037629455 41 53
4.3124785 0.036985271 -0.44872656 43 13
4.4478979 0.16829857 0.023887333 30 61
4.3233118 0.036319535 -0.38942555 35 17
4.3195891 0.16270414 -0.57575035 29 8
4.3602676 -0.09398444 -0.20321664 25 31
4.3626828 -0.09403798 -0.14280722 49 39
4.4000421 0.033863589 -0.0906526 24 46
4.2894526 -0.093163535 -0.51107442 38 10
4.4158821 0.033979706 -0.0298141 41 54
4.4275265 0.16366106 -0.22184259 17 29
4.4002619 0.16265655 -0.15860921 39 37
4.3214731 0.28649506 -0.46580821 23 12
4.3848324 0.55045605 -0.24429199 96 27
4.3375282 0.28680113 -0.40673721 36 16
4.3477993 0.28671935 -0.34690878 23 20
4.367147 0.28799763 -0.28753451 34 24
4.3907604 0.28801844 -0.22794707 34 28
4.4035339 0.28808603 -0.16737533 42 36
4.4254417 0.2887463 -0.10673448 23 44
4.4364867 0.28946829 -0.044641886 38 52
4.40663 0.4304584 -0.17561337 35 35
4.4285421 0.43260688 -0.11480154 43 43
4.3284116 0.025028177 -0.32952684 36 21
4.3425784 0.024346884 -0.27019006 33 25
4.2731371 -0.227672 -0.4302651 45 14
4.3659077 0.024469038 -0.21100867 23 30
4.2837214 -0.22899505 -0.37067074 37 18
4.3784294 0.023770403 -0.15088102 43 38
4.2983394 -0.23054166 -0.31271505 39 22
4.4123816 0.15307891 -0.098606877 28 45
4.3122516 -0.23129998 -0.25367749 42 26
4.3026204 0.021884749 -0.53521037 48 9
4.4283481 0.15285708 -0.037586693 37 53
4.3076086 0.021908257 -0.44820482 28 13
4.4484587 0.15277149 0.023887333 20 61
4.3184328 0.021205543 -0.38897324 36 17
4.3102255 0.14728773 -0.5744192 23 8
4.3599129 -0.10920404 -0.20321664 20 31
4.3623276 -0.10926601 -0.14280722 45 39
4.3951349 0.018485177 -0.090548769 17 46
4.2841382 -0.10800773 -0.51047808 32 10
4.4109735 0.018545995 -0.029780064 42 54
4.4031162 0.14737295 -0.22058211 17 29
4.3958087 0.14712925 -0.15842773 38 37
4.3224468 0.27140853 -0.46580821 25 12
4.3619514 0.53210908 -0.2429008 43 27
4.3385029 0.27165857 -0.40673721 27 16
4.3487735 0.27154094 -0.34690878 25 20
4.3631463 0.27244014 -0.287204 28 24
4.3917389 0.27269009 -0.22794707 20 28
4.4045124 0.27271307 -0.16737533 37 36
4.4264231 0.27329683 -0.10673448 17 44
4.43747 0.27398026 -0.044641886 34 52
4.461781 0.28877562 0.016255088 40 60
4.4081054 0.41507375 -0.17561337 23 35
4.4300246 0.41714573 -0.11480154 81 43
4.3284721 0.0099190492 -0.32952684 35 21
4.3476272 0.009197019 -0.27050313 43 25
4.2723165 -0.24258666 -0.4302651 40 14
4.3659663 0.0092290295 -0.21100867 20 30
4.282896 -0.24394663 -0.37067074 33 18
4.3784862 0.0084866891 -0.15088102 34 38
4.2925301 -0.2452555 -0.31234974 23 22
4.4078927 0.13752061 -0.098494314 23 45
4.2964687 -0.24548398 -0.25279054 40 26
4.3026705 0.0068656681 -0.53521037 32 9
4.4288545 0.13739832 -0.037586693 25 53
4.3126311 0.0068778386 -0.44872656 23 13
4.4389696 0.13693541 0.023833226 17 61
4.3135014 0.0061260536 -0.38852099 23 17
4.3057604 0.13209 -0.57375354 28 8
4.3545122 -0.12427675 -0.20298198 20 31
4.3569245 -0.12434707 -0.1426423 43 39
4.3951731 0.0031431792 -0.090548769 14 46
4.2837353 -0.1229615 -0.51047808 29 10
4.4110117 0.0031487101 -0.029780064 34 54
4.3786459 0.13125721 -0.21932164 20 29
4.3962951 0.1317841 -0.15842773 31 37
4.3400917 0.51482719 -0.30233598 95 23
4.32833 0.25661358 -0.46634734 32 12
4.3885689 0.51983094 -0.24429199 46 27
4.3394251 0.2565127 -0.40673721 28 16
4.3496947 0.25635925 -0.34690878 25 20
4.3590899 0.25691411 -0.28687349 28 24
4.3876796 0.25706574 -0.22768626 20 28
4.4054375 0.2573368 -0.16737533 31 36
4.4223595 0.25755286 -0.10661319 23 44
4.4383988 0.25848895 -0.044641886 25 52
4.4577703 0.27289322 0.016236762 42 60
4.4095278 0.39968407 -0.17561337 35 35
4.4264765 0.40122652 -0.11467152 33 43
4.3284807 -0.0051908027 -0.32952684 23 21
4.3426428 -0.0059709842 -0.27019006 26 25
4.2664781 -0.25719464 -0.42976066 30 14
4.365972 -0.0060117017 -0.21100867 20 30
4.2820182 -0.25889525 -0.37067074 23 18
4.3784885 -0.0067977398 -0.15088102 34 38
4.2916484 -0.26023772 -0.31234974 17 22
4.4133425 0.12227119 -0.098606877 23 45
4.3026681 -0.0081540952 -0.53521037 34 9
4.429307 0.12193789 -0.037586693 38 53
4.3076563 -0.0081654126 -0.44820482 29 13
4.4394207 0.12143969 0.023833226 20 61
4.3134966 -0.0089315139 -0.38852099 29 17
4.3111486 0.11719333 -0.5744192 36 8
4.3540521 -0.13947608 -0.20298198 23 31
4.3951573 -0.012199469 -0.090548769 20 46
4.2832799 -0.13791379 -0.51047808 25 10
4.4059963 -0.012233521 -0.02974603 28 54
4.3790779 0.11597208 -0.21932164 20 29
4.3967285 0.11643737 -0.15842773 38 37
4.3369069 0.49910101 -0.30198807 96 23
4.3291993 0.24150331 -0.46634734 41 12
4.3754787 0.50279009 -0.24345729 42 27
4.3402939 0.24136372 -0.40673721 32 16
4.4132595 0.5063743 -0.18390323 10 34
4.3555393 0.24145088 -0.34730887 31 20
4.3649416 0.24197325 -0.287204 31 24
4.3935356 0.24202359 -0.22794707 23 28
4.4063091 0.24195738 -0.16737533 37 36
4.4232311 0.24211437 -0.10661319 29 44
4.4292898 0.24244674 -0.044540659 31 52
4.4537044 0.25704235 0.016218435 45 60
4.4059186 0.38385406 -0.17541359 37 35
4.4278498 0.38577279 -0.11467152 47 43
4.3284364 -0.02029999 -0.32952684 29 21
4.3425956 -0.021129599 -0.27019006 31 25
4.2655544 -0.27208588 -0.42976066 31 14
4.3659248 -0.021251749 -0.21100867 23 30
4.2810888 -0.27384073 -0.37067074 25 18
4.378438 -0.022081478 -0.15088102 50 38
4.2857375 -0.27489322 -0.31198442 23 22
4.4087458 0.10674462 -0.098494314 28 45
4.3026137 -0.023173161 -0.53521037 50 9
4.4247069 0.10635644 -0.037543934 41 53
4.3125739 -0.023230528 -0.44872656 32 13
4.4398179 0.10594247 0.023833226 30 61
4.3184185 -0.024017919 -0.38897324 36 17
4.3065772 0.10202716 -0.57375354 49 8
4.3485475 -0.1544933 -0.2027473 25 31
4.390089 -0.027508201 -0.090444922 23 46
4.2827725 -0.15286438 -0.51047808 32 10
4.3844485 0.10079972 -0.21957374 25 29
4.3971081 0.10108921 -0.15842773 47 37
4.348537 0.48507133 -0.30268389 97 23
4.3250518 0.22612995 -0.46580821 32 12
4.3772073 0.48751375 -0.24345729 46 27
4.3361392 0.22595216 -0.40626752 39 16
4.4050713 0.4898558 -0.18348622 99 34
4.3513789 0.22598664 -0.34690878 28 20
4.3657598 0.22673529 -0.287204 34 24
4.3893671 0.22642796 -0.22768626 28 28
4.4071264 0.226575 -0.16737533 49 36
4.4140658 0.22616015 -0.10637061 31 44
4.43011 0.22698414 -0.044540659 41 52
4.4545746 0.24149443 0.016218435 48 60
4.4122109 0.36889029 -0.17561337 49 35
4.4291697 0.37031439 -0.11467152 50 43
4.3233538 -0.035366293 -0.32914412 32 21
4.3424954 -0.03628796 -0.27019006 36 25
4.2645788 -0.28697377 -0.42976066 38 14
4.3658237 -0.036491543 -0.21100867 28 30
4.2801065 -0.28878284 -0.37067074 30 18
4.3733373 -0.037320465 -0.15070739 54 38
4.2847514 -0.28985155 -0.31198442 29 22
4.4140882 0.091457509 -0.098606877 30 45
4.2975464 -0.038146056 -0.5345881 52 9
4.4250517 0.090910681 -0.037543934 50 53
4.3074946 -0.038238086 -0.44820482 47 13
4.4351616 0.09034276 0.023806175 37 61
4.3133292 -0.039044939 -0.38852099 41 17
4.311862 0.087093219 -0.5744192 49 8
4.3479815 -0.16967161 -0.2027473 29 31
4.3949647 -0.042882912 -0.090548769 29 46
