# .PCD v0.7 - Point Cloud Data file format
VERSION 0.7
FIELDS x y z intensity ring
SIZE 4 4 4 4 2
TYPE F F F F U
COUNT 1 1 1 1 1
WIDTH 1200
HEIGHT 1
VIEWPOINT 0 0 0 1 0 0 0
POINTS 1200
DATA ascii
4.8078642 -0.51960641 0.042725094 52 63
4.8007236 -0.37621182 -0.23291267 36 30
4.7231746 -0.65245152 -0.41233864 57 18
4.8133993 -0.37805468 -0.16650738 52 38
4.7282457 -0.65399724 -0.34705526 37 22
4.854064 -0.23856489 -0.10862515 76 45
4.7325878 -0.65460134 -0.28087837 59 26
4.7507415 -0.65797192 -0.21532451 51 32
4.7603083 -0.37553898 -0.49725166 34 13
4.7481942 -0.65846187 -0.1486855 55 40
4.7716665 -0.37727696 -0.43148896 40 17
4.7596941 -0.66006577 -0.082416251 52 48
4.7773347 -0.52219582 -0.2241015 58 31
4.7899175 -0.52357823 -0.15781352 60 39
4.8297334 -0.38528091 -0.09989439 47 46
4.733789 -0.51824754 -0.56772798 57 10
4.8356404 -0.38575411 -0.032775089 42 54
4.8406124 -0.38615239 0.034490898 46 62
4.8239245 -0.24298844 -0.24201007 38 29
4.8445802 -0.38732111 0.1018891 48 69
4.8368444 -0.24364066 -0.17457902 59 37
4.8384528 -0.10526694 -0.25089827 65 28
4.7905364 -0.53380239 -0.091025442 48 47
4.7811742 -0.39063022 -0.3655031 40 21
4.8012738 -0.53500485 -0.024270244 60 55
4.7907028 -0.39225364 -0.29930669 54 25
4.714746 -0.66722256 -0.47919327 40 14
4.801053 -0.53582847 0.042680591 53 63
4.7993817 -0.39296716 -0.23291267 53 30
4.7208681 -0.66893446 -0.41233864 54 18
4.8120503 -0.39485431 -0.16650738 53 38
4.7209973 -0.66979355 -0.34668994 53 22
4.8482099 -0.2552439 -0.10851258 82 45
4.7302742 -0.67111719 -0.28087837 53 26
4.7628002 -0.39247036 -0.59495479 52 9
4.8591948 -0.2566739 -0.041306879 42 53
4.7434707 -0.67384464 -0.21509854 50 32
4.7589684 -0.39215329 -0.49725166 82 13
4.7458673 -0.67503214 -0.1486855 45 40
4.7752833 -0.39434239 -0.43194124 50 17
4.7672591 -0.67809188 -0.082589023 48 48
4.7705202 -0.53830582 -0.22386684 67 31
4.7781296 -0.53916878 -0.15748371 48 39
4.8283596 -0.40213746 -0.09989439 48 46
4.7270193 -0.53420812 -0.56713164 74 10
4.8342652 -0.40263128 -0.032775089 42 54
4.8342533 -0.4026303 0.034455124 44 62
4.8230472 -0.25982559 -0.24201007 46 29
4.8332357 -0.40339461 0.10167795 42 69
4.8359647 -0.2605229 -0.17457902 66 37
4.8141785 -0.1198739 -0.31661847 76 24
4.8280725 -0.12190469 -0.25037664 68 28
4.7886443 -0.55052119 -0.091025442 59 47
4.7797818 -0.40731728 -0.3655031 57 21
4.7944102 -0.5511874 -0.024244936 44 55
4.7893043 -0.40897393 -0.29930669 60 25
4.712388 -0.68367606 -0.47919327 55 14
4.7991529 -0.55258405 0.042680591 55 63
4.7930045 -0.40929118 -0.23266928 53 30
4.7135758 -0.68468934 -0.4119046 56 18
4.8056641 -0.41122136 -0.16633375 54 38
4.7186303 -0.68626881 -0.34668994 47 22
4.842299 -0.27188501 -0.10840002 68 45
4.7229633 -0.68690246 -0.2805827 51 26
4.7663445 -0.40951964 -0.59557712 62 9
4.8532777 -0.27335238 -0.041264117 60 53
4.7361479 -0.68967474 -0.21487263 42 32
4.7575707 -0.40876281 -0.49725166 53 13
4.7385378 -0.69086939 -0.14852934 42 40
4.7689166 -0.41057998 -0.43148896 64 17
4.7500238 -0.69255322 -0.082329854 42 48
4.7636509 -0.55437458 -0.22363217 52 31
4.7811818 -0.55642468 -0.15764861 42 39
4.8219461 -0.41855511 -0.099790551 44 46
4.7251258 -0.55070525 -0.56713164 75 10
4.83283 -0.41950351 -0.032775089 41 54
4.827837 -0.41906843 0.034419343 40 62
4.8171263 -0.27637306 -0.241758 52 29
4.8317981 -0.42026332 0.10167795 40 69
4.8300371 -0.27711523 -0.17439754 62 37
4.8087435 -0.13653675 -0.31628796 84 24
4.8326087 -0.13889998 -0.25063744 74 28
4.7866936 -0.56723332 -0.091025442 42 47
4.773365 -0.42355698 -0.36512035 57 21
4.7924571 -0.56791961 -0.024244936 42 55
4.782877 -0.42524567 -0.29899365 55 25
4.7050529 -0.69938588 -0.47868884 48 14
4.7922306 -0.5687409 0.042636085 50 63
4.7915468 -0.4260194 -0.23266928 45 30
4.7111568 -0.70113868 -0.4119046 56 18
4.8041987 -0.42799374 -0.16633375 54 38
4.7112746 -0.70199686 -0.34632462 40 22
4.8413205 -0.28878611 -0.10840002 61 45
4.7205372 -0.70338452 -0.2805827 45 26
4.7550035 -0.42526761 -0.59433252 57 9
4.8522935 -0.29029182 -0.041264117 54 53
4.7287717 -0.70546186 -0.21464667 36 32
4.7610669 -0.42581195 -0.49777347 52 13
4.7311549 -0.70666355 -0.14837314 39 40
4.7674546 -0.42722413 -0.43148896 50 17
4.7574649 -0.71061444 -0.082502641 39 48
4.7616873 -0.5709995 -0.22363217 38 31
4.7692876 -0.57191527 -0.1573188 39 39
4.8154769 -0.43493301 -0.099686705 39 46
4.7281027 -0.56779033 -0.56772798 78 10
4.8213768 -0.43546784 -0.032707017 39 54
4.8263445 -0.43591818 0.034419343 39 62
4.8161325 -0.29318628 -0.241758 50 29
4.8203449 -0.43622252 0.10146677 25 69
4.8290405 -0.29397351 -0.17439754 57 37
4.8132238 -0.15348001 -0.31661847 86 24
4.8320947 -0.1557681 -0.25063744 57 28
4.8550725 -0.15735452 -0.18438034 63 36
4.7797217 -0.58333021 -0.09093032 32 47
4.7718573 -0.44021657 -0.36512035 53 21
4.7904453 -0.58464497 -0.024244936 32 55
4.7813635 -0.4419384 -0.29899365 50 25
4.7025828 -0.71580535 -0.47868884 34 14
4.785058 -0.44228113 -0.23242593 45 30
4.7037563 -0.71682501 -0.41147056 34 18
4.7927241 -0.44383597 -0.16598648 45 38
4.7087951 -0.71843803 -0.34632462 25 22
4.8402824 -0.30568376 -0.10840002 41 45
4.713119 -0.71910125 -0.28028703 37 26
4.7534904 -0.44186306 -0.59433252 49 9
4.846261 -0.30691117 -0.041221354 38 53
4.7262807 -0.72196412 -0.21464667 39 32
4.754601 -0.44196665 -0.49725166 44 13
4.8463125 -0.3077637 0.02607858 29 61
4.7286592 -0.72317404 -0.14837314 23 40
4.765934 -0.44386306 -0.43148896 43 17
4.749752 -0.58638799 -0.22316286 29 31
4.7672625 -0.58855969 -0.1573188 28 39
4.81393 -0.45173952 -0.099686705 23 46
4.7211661 -0.58367914 -0.56713164 73 10
4.8198276 -0.45229495 -0.032707017 20 54
4.8247938 -0.45276263 0.034419343 20 62
4.8150797 -0.30999592 -0.241758 31 29
4.8187928 -0.45304596 0.10146677 17 69
4.8229985 -0.31050664 -0.17421606 36 37
4.807673 -0.1701045 -0.31628796 66 24
4.8265314 -0.17245655 -0.25037664 65 28
4.8495002 -0.17412218 -0.18418927 68 36
4.772697 -0.59938532 -0.090835214 33 47
4.7702913 -0.45687076 -0.36512035 34 21
4.7784543 -0.6001116 -0.024194319 29 55
4.7797918 -0.45862579 -0.29899365 36 25
4.6951413 -0.73144644 -0.4781844 30 14
4.7834854 -0.45898142 -0.23242593 36 30
4.7012258 -0.73323989 -0.41147056 33 18
4.7911458 -0.46056297 -0.16598648 31 38
4.7062588 -0.73487043 -0.34632462 26 22
4.8391862 -0.3225776 -0.10840002 30 45
4.7105803 -0.73554868 -0.28028703 20 26
4.7519193 -0.45845315 -0.59433252 42 9
4.84516 -0.3238259 -0.041221354 36 53
4.7187972 -0.7376821 -0.21442072 25 32
4.7530293 -0.45856062 -0.49725166 31 13
4.8501978 -0.32501349 0.026105633 52 61
4.7211695 -0.73889911 -0.14821696 23 40
4.7593994 -0.46001583 -0.43103665 38 17
4.7476764 -0.6029641 -0.22316286 38 31
4.7651792 -0.60519695 -0.1573188 29 39
4.8123236 -0.46854052 -0.099686705 23 46
4.7190995 -0.60015559 -0.56713164 56 10
4.8132434 -0.46863037 -0.032672983 29 54
4.8132315 -0.46862921 0.034347784 25 62
4.8089857 -0.32646301 -0.24150589 35 29
4.8072324 -0.46889013 0.1012556 23 69
4.8169003 -0.32700118 -0.1740346 32 37
4.7971911 -0.18650322 -0.38251993 43 20
4.8120351 -0.18707864 -0.31661847 36 24
4.8258996 -0.18930322 -0.25037664 40 28
4.8488626 -0.19104902 -0.18418927 65 36
4.770576 -0.61604154 -0.090835214 41 47
4.7637067 -0.47302514 -0.36473763 29 21
4.7812886 -0.61743093 -0.024219628 31 55
4.7731962 -0.47481197 -0.29868054 32 25
4.6876469 -0.74704427 -0.47767997 28 14
4.7818537 -0.47567609 -0.23242593 35 30
4.6937194 -0.74885708 -0.41103649 30 18
4.7944813 -0.47778162 -0.16616012 33 38
4.7036648 -0.75129384 -0.34632462 25 22
4.8330441 -0.33911708 -0.10828746 30 45
4.707984 -0.75198722 -0.28028703 29 26
4.7502894 -0.47503763 -0.59433252 38 9
4.8390126 -0.34038529 -0.041178599 33 53
4.7161927 -0.7541492 -0.21442072 29 32
4.751399 -0.47514901 -0.49725166 28 13
4.8390589 -0.34123734 0.026051531 42 61
4.7185612 -0.75537461 -0.14821696 22 40
4.7627192 -0.47712448 -0.43148896 29 17
4.750494 -0.62018222 -0.22339749 30 31
4.7580824 -0.6211772 -0.15715389 35 39
4.8156323 -0.48583919 -0.099790551 31 46
4.7169762 -0.61662471 -0.56713164 46 10
4.8115783 -0.48542884 -0.032672983 29 54
4.8115664 -0.48542765 0.034347784 31 62
4.807817 -0.34324753 -0.24150589 32 29
4.8155127 -0.48667622 0.10146677 28 69
4.8157296 -0.34381336 -0.1740346 31 37
4.8014913 -0.20345786 -0.38292006 39 20
4.8113527 -0.20387463 -0.31661847 42 24
4.8252096 -0.20614761 -0.25037664 37 28
4.8481665 -0.20797354 -0.18418927 50 36
4.8552246 -0.20912449 -0.11704406 64 44
4.7683964 -0.63269019 -0.090835214 36 47
4.7669854 -0.49016228 -0.36512035 28 21
4.7691922 -0.63279623 -0.024169013 35 55
4.7715101 -0.49147063 -0.29868054 31 25
4.6899204 -0.76420665 -0.4781844 29 14
4.7751961 -0.49185157 -0.23218255 38 30
4.6910772 -0.76523662 -0.41103649 36 18
4.7828441 -0.49348557 -0.16581286 36 38
4.6960931 -0.76690048 -0.34595928 29 22
4.8268456 -0.35561767 -0.10817489 32 45
4.7004056 -0.76760823 -0.27999136 37 26
4.7436676 -0.4911038 -0.59371012 38 9
4.8377953 -0.35727453 -0.041178599 31 53
4.713532 -0.77060723 -0.21442072 49 32
4.749712 -0.49173161 -0.49725166 31 13
4.842824 -0.35849637 0.02607858 57 61
4.7109642 -0.77102971 -0.14806077 34 40
4.7560716 -0.49323121 -0.43103665 32 17
4.7483006 -0.63676071 -0.22339749 38 31
4.7558851 -0.63778216 -0.15715389 44 39
4.8089352 -0.5021252 -0.099686705 39 46
4.7147946 -0.6330862 -0.56713164 45 10
4.804882 -0.50170064 -0.032638952 37 54
4.8098426 -0.50222021 0.034347784 42 62
4.8065891 -0.36002785 -0.24150589 33 29
4.7938976 -0.50139582 0.10104443 37 69
4.8194823 -0.36099505 -0.17421606 36 37
4.7957726 -0.21998912 -0.38251993 36 20
4.8056278 -0.22044009 -0.31628796 35 24
4.8244605 -0.22298948 -0.25037664 34 28
4.8424206 -0.22466457 -0.18399821 40 36
4.854465 -0.2260711 -0.11704406 74 44
4.7612062 -0.64865351 -0.0907401 53 47
4.7602882 -0.50627029 -0.36473763 33 21
4.7648029 -0.50759304 -0.29836747 36 25
4.6823177 -0.77975172 -0.47767997 35 14
4.7734504 -0.50851715 -0.23218255 40 30
4.6883774 -0.78160691 -0.41103649 48 18
4.7810922 -0.51017779 -0.16581286 42 38
4.6933875 -0.7832883 -0.34595928 37 22
4.8255749 -0.37246436 -0.10817489 46 45
4.7026196 -0.78483659 -0.28028703 50 26
4.7320585 -0.50659966 -0.59246546 42 9
4.8315339 -0.37377325 -0.041135836 42 53
4.710813 -0.78705585 -0.21442072 51 32
4.7479663 -0.50830817 -0.49725166 35 13
4.8415432 -0.37539876 0.02607858 57 61
4.7082438 -0.78746945 -0.14806077 35 40
4.7543211 -0.50983006 -0.43103665 38 17
4.7460489 -0.65333152 -0.22339749 63 31
4.7536302 -0.65437943 -0.15715389 57 39
4.8021836 -0.51837033 -0.099582873 52 46
4.7125564 -0.64954001 -0.56713164 59 10
4.8031015 -0.51846969 -0.032638952 45 54
4.8080602 -0.51900661 0.034347784 42 62
4.8053031 -0.37680379 -0.24150589 36 29
4.8132119 -0.37742484 -0.1740346 54 37
4.7949758 -0.23672815 -0.38251993 37 20
4.8098125 -0.23745897 -0.31661847 33 24
4.8236527 -0.23982862 -0.25037664 37 28
4.8366165 -0.24131794 -0.18380715 40 36
4.8536458 -0.24301498 -0.11704406 71 44
4.7539625 -0.66457444 -0.090644978 57 47
4.7584925 -0.52288371 -0.36473763 43 21
4.7630024 -0.5242222 -0.29836747 44 25
4.6844707 -0.7969296 -0.4781844 47 14
4.7666826 -0.52462852 -0.23193915 53 30
4.6856203 -0.79796767 -0.41103649 53 18
4.7792821 -0.52686375 -0.16581286 58 38
4.6906242 -0.79966646 -0.34595928 53 22
4.8242455 -0.38930646 -0.10817489 62 45
4.694932 -0.80040431 -0.27999136 47 26
4.7253308 -0.52256763 -0.59184313 37 9
4.8301997 -0.39063618 -0.041135836 58 53
4.7080374 -0.80349493 -0.21442072 46 32
4.7461629 -0.52487856 -0.49725166 42 13
4.8402033 -0.39229664 0.02607858 42 61
4.7525125 -0.52642256 -0.43103665 45 17
4.7387948 -0.66919327 -0.22316286 57 31
4.7463684 -0.67026711 -0.15698899 64 39
4.7904086 -0.53401893 -0.099375188 53 46
4.7102604 -0.665986 -0.56713164 71 10
4.7962933 -0.53467691 -0.032604914 43 54
4.8062196 -0.53578675 0.034347784 43 62
4.8039584 -0.3935751 -0.24150589 42 29
4.8068848 -0.39381516 -0.17385313 47 37
4.7933378 -0.2525841 -0.44947749 94 16
4.8040743 -0.25398943 -0.38332018 46 20
4.8089542 -0.25424689 -0.31661847 40 24
4.8227859 -0.25666487 -0.25037664 52 28
4.840734 -0.25846529 -0.18399821 53 36
4.8477769 -0.25968903 -0.11692277 52 44
4.858932 -0.26028538 -0.048893493 94 52
4.896121 -0.10416783 -0.19439341 96 35
4.7565618 -0.6818769 -0.0907401 66 47
4.7566381 -0.53949076 -0.36473763 53 21
4.7611432 -0.54084498 -0.29836747 55 25
4.6767597 -0.8124212 -0.47767997 56 14
4.764822 -0.54126412 -0.23193915 53 30
4.682806 -0.81431866 -0.41103649 52 18
4.7774138 -0.5435434 -0.16581286 55 38
4.6828928 -0.81517589 -0.34559399 47 22
4.8228569 -0.40614387 -0.10817489 54 45
4.6871929 -0.81592798 -0.27969572 45 26
4.7234783 -0.53905892 -0.59184313 41 9
4.8288069 -0.40749434 -0.041135836 48 53
4.7002835 -0.81906277 -0.21419477 43 32
4.7393613 -0.54087704 -0.49672988 58 13
4.8338227 -0.40876788 0.026051531 45 61
4.7456989 -0.54244155 -0.43058434 56 17
4.7314873 -0.68501216 -0.2229282 53 31
4.7390556 -0.68611217 -0.1568241 51 39
4.7885156 -0.55073732 -0.099375188 53 46
4.7079067 -0.68242383 -0.56713164 78 10
4.7943978 -0.5514158 -0.032604914 41 54
4.7993531 -0.55198741 0.034312006 45 62
4.7975798 -0.40991595 -0.24125379 57 29
4.805481 -0.41059193 -0.17385313 46 37
4.7725472 -0.26819947 -0.44759879 82 16
4.7981825 -0.27047729 -0.38292006 73 20
4.8080373 -0.27103171 -0.31661847 57 24
4.8218608 -0.27349797 -0.25037664 57 28
4.8348136 -0.27507776 -0.18380715 57 36
4.8418508 -0.27632514 -0.11680149 49 44
4.8530016 -0.27696028 -0.048842877 35 52
4.8557715 -0.12028132 -0.19279511 96 35
4.7442608 -0.69701743 -0.090549864 53 47
4.7497745 -0.55551046 -0.36435488 54 21
4.7592263 -0.5574612 -0.29836747 50 25
4.6689982 -0.827869 -0.47717559 52 14
4.7629037 -0.55789316 -0.23193915 46 30
4.6750317 -0.82978541 -0.41060248 49 18
4.7705245 -0.55963248 -0.16563924 53 38
4.6751094 -0.83064109 -0.34522867 41 22
4.8164301 -0.42253888 -0.10806233 47 45
4.6794024 -0.83140731 -0.27940005 41 26
4.7264938 -0.55612504 -0.59246546 62 9
4.8273549 -0.42434752 -0.041135836 39 53
4.7023129 -0.83634329 -0.21442072 42 32
4.7374444 -0.55741721 -0.49672988 65 13
4.8323665 -0.42563859 0.026051531 41 61
4.7437763 -0.55900383 -0.43058434 57 17
4.7290673 -0.70152402 -0.2229282 41 31
4.7366314 -0.70265043 -0.1568241 38 39
4.7865639 -0.56744891 -0.099375188 47 46
4.7005858 -0.69812125 -0.56653529 77 10
4.7924438 -0.56814802 -0.032604914 30 54
4.802362 -0.56932712 0.034347784 43 62
4.7911463 -0.42621711 -0.2410017 50 29
4.8040185 -0.42736366 -0.17385313 44 37
4.7914577 -0.28604147 -0.44947749 79 16
4.7972093 -0.28722444 -0.38292006 77 20
4.8020821 -0.28751564 -0.31628796 58 24
4.8158932 -0.29002815 -0.25011584 57 28
4.8288369 -0.29165208 -0.18361607 45 36
4.8458457 -0.29352629 -0.11692277 44 44
4.8520055 -0.29389876 -0.048842877 41 52
4.9102569 -0.13876487 -0.1949928 62 35
4.7467422 -0.71432048 -0.090644978 41 47
4.7478065 -0.57208693 -0.36435488 53 21
4.7572513 -0.57407057 -0.29836747 48 25
4.6660805 -0.84416175 -0.47717559 41 14
4.7510118 -0.5733155 -0.23145242 49 30
4.6672063 -0.84520775 -0.41016844 41 18
4.7635813 -0.57568014 -0.16546561 34 38
4.6721821 -0.84695518 -0.34522867 34 22
4.8099484 -0.438894 -0.10794976 39 45
4.6764722 -0.84773636 -0.27940005 25 26
4.7196002 -0.57202166 -0.59184313 42 9
4.8208652 -0.44073975 -0.041093074 41 53
4.7305341 -0.57335061 -0.49620813 57 13
4.8258724 -0.44204745 0.026024478 39 61
4.7368536 -0.57495767 -0.43013209 55 17
4.7216525 -0.71727437 -0.22269352 31 31
4.7292099 -0.71842676 -0.15665919 36 39
4.7795925 -0.58354622 -0.099271342 31 46
4.6981206 -0.71452504 -0.56653529 52 10
4.7854686 -0.58426565 -0.03257088 34 54
4.7896295 -0.44293875 -0.2410017 39 29
4.7975221 -0.44366956 -0.17367165 41 37
4.7705579 -0.30151135 -0.44759879 50 16
4.7912025 -0.30365339 -0.38251993 62 20
4.8010488 -0.30427629 -0.31628796 57 24
4.8148508 -0.30683696 -0.25011584 54 28
4.8277888 -0.30850604 -0.18361607 42 36
4.8398037 -0.31012061 -0.11680149 41 44
4.8459606 -0.31051445 -0.048792262 39 52
4.8570566 -0.29675668 0.017702835 37 60
4.8548136 -0.1541778 -0.19279511 77 35
4.7457805 -0.58865631 -0.36435488 39 21
4.7502666 -0.59005624 -0.29805437 29 25
4.663105 -0.86044431 -0.47717559 28 14
4.7489815 -0.58989614 -0.23145242 30 30
4.6691246 -0.86240274 -0.41060248 29 18
4.7615423 -0.59230459 -0.16546561 23 38
4.6642938 -0.86234856 -0.34486333 23 22
4.8133631 -0.45615336 -0.10806233 25 45
4.6685772 -0.86314392 -0.27910438 20 26
4.7224965 -0.58910835 -0.59246546 41 9
4.8192968 -0.45756504 -0.041093074 39 53
4.7285037 -0.58985972 -0.49620813 40 13
4.8193221 -0.45841616 0.025997424 32 61
4.734818 -0.5914889 -0.43013209 38 17
4.71912 -0.73375165 -0.22269352 30 31
4.7266731 -0.7349304 -0.15665919 29 39
4.7725668 -0.59960186 -0.099167511 25 46
4.6955976 -0.73092026 -0.56653529 48 10
4.7784395 -0.60034162 -0.032536846 28 54
4.7880535 -0.45965496 -0.2410017 37 29
4.7909698 -0.45993525 -0.17349017 37 37
4.7744431 -0.31849262 -0.44806847 42 16
4.7901134 -0.32037592 -0.38251993 51 20
4.7999573 -0.32103321 -0.31628796 40 24
4.8137507 -0.32364208 -0.25011584 40 28
4.8216977 -0.32502085 -0.18342499 42 36
4.8337045 -0.32667634 -0.1166802 35 44
4.8448472 -0.32742813 -0.048792262 28 52
4.8559909 -0.31370917 0.017702835 49 60
4.8492522 -0.17094895 -0.19259532 54 35
4.8664565 -0.17154974 -0.12572263 95 43
4.7387524 -0.60458601 -0.36397219 33 21
4.7432284 -0.60600007 -0.29774132 31 25
4.6551847 -0.87579262 -0.47667119 25 14
4.7518463 -0.60710406 -0.23169577 25 30
4.6611919 -0.87777007 -0.41016844 29 18
4.7594461 -0.60892183 -0.16546561 25 38
4.6612554 -0.87862474 -0.34486333 30 22
4.806767 -0.4724628 -0.10794976 31 45
4.6655354 -0.87943506 -0.27910438 25 26
4.7204113 -0.60558927 -0.59246546 41 9
4.812695 -0.47389427 -0.041050311 28 53
4.7264156 -0.60636169 -0.49620813 31 13
4.8127165 -0.47474456 0.025970371 34 61
4.7327242 -0.60801286 -0.43013209 35 17
4.7165298 -0.75022 -0.22269352 32 31
4.7191439 -0.75063735 -0.15649427 31 39
4.7704449 -0.61625755 -0.099167511 31 46
4.6881156 -0.74652308 -0.56593889 50 10
4.7763147 -0.61701787 -0.032536846 29 54
4.7814512 -0.47587049 -0.24074963 36 29
4.7843637 -0.47616068 -0.1733087 38 37
4.756741 -0.33316129 -0.51325166 41 12
4.82831 -0.054085761 -0.2671074 86 27
4.7683368 -0.33480847 -0.44759879 37 16
4.7790232 -0.33639583 -0.38171968 41 20
4.7938304 -0.33743647 -0.31595746 37 24
4.8125916 -0.34044319 -0.25011584 30 28
4.8205342 -0.34184971 -0.18342499 36 36
4.8325348 -0.34354711 -0.1166802 29 44
4.8386879 -0.34398383 -0.04874165 25 52
4.8498778 -0.3303186 0.017684508 42 60
4.8486261 -0.18787497 -0.19259532 53 35
4.8558388 -0.18815205 -0.12546261 97 43
4.7366128 -0.62112373 -0.36397219 32 21
4.7410841 -0.62255329 -0.29774132 32 25
4.6569843 -0.89297765 -0.47717559 30 14
4.7447476 -0.62303561 -0.23145242 32 30
4.6580992 -0.89403534 -0.41016844 32 18
4.7572913 -0.62553173 -0.16546561 32 38
4.6581597 -0.89489013 -0.34486333 32 22
4.8050885 -0.48923868 -0.10794976 38 45
4.6575365 -0.89476985 -0.27880871 30 26
4.7182689 -0.62206298 -0.59246546 39 9
4.8110118 -0.4906908 -0.041050311 31 53
4.7242703 -0.62285632 -0.49620813 40 13
4.8110304 -0.49154115 0.025970371 47 61
4.7305732 -0.62452942 -0.43013209 36 17
4.713882 -0.76667923 -0.22269352 32 31
4.716495 -0.7671057 -0.15649427 35 39
4.7682643 -0.63290578 -0.099167511 43 46
4.6854811 -0.76288307 -0.56593889 42 10
4.7691755 -0.63302702 -0.032502815 30 54
4.7797608 -0.492558 -0.24074963 43 29
4.7876425 -0.49337107 -0.17349017 37 37
4.7605066 -0.35012746 -0.51379079 34 12
4.8181086 -0.070798233 -0.26655096 95 27
4.7721038 -0.35181651 -0.44806847 36 16
4.7877598 -0.35380918 -0.38251993 37 20
4.7926235 -0.35416803 -0.31595746 35 24
4.8063951 -0.35687107 -0.24985503 34 28
4.8242941 -0.3590447 -0.18361607 28 36
4.8263216 -0.36004239 -0.1165589 32 44
4.8374577 -0.36087191 -0.04874165 29 52
4.8486948 -0.34724584 0.017684508 50 60
4.8479409 -0.20479868 -0.19259532 46 35
4.8601465 -0.20531026 -0.12559262 49 43
4.734416 -0.63765383 -0.36397219 37 21
4.7388821 -0.63909894 -0.29774132 45 25
4.6538391 -0.90922809 -0.47717559 37 14
4.7425437 -0.63959402 -0.23145242 44 30
4.6549501 -0.91028976 -0.41016844 39 18
4.7550793 -0.64213395 -0.16546561 38 38
4.6550083 -0.91114473 -0.34486333 43 22
4.8033514 -0.50600863 -0.10794976 65 45
4.6543851 -0.91102225 -0.27880871 36 26
4.711153 -0.63786179 -0.59184313 40 9
4.804297 -0.50695616 -0.041007556 37 53
4.7220674 -0.63934326 -0.49620813 36 13
4.8092847 -0.50833178 0.025970371 40 61
4.728364 -0.64103848 -0.43013209 36 17
4.7062507 -0.78230715 -0.22245885 65 31
4.708859 -0.78274226 -0.15632938 41 39
4.7610726 -0.64886951 -0.099063672 48 46
4.6827893 -0.77923381 -0.56593889 70 10
4.7780123 -0.50923949 -0.24074963 38 29
4.7759538 -0.50901985 -0.17312722 43 37
4.7592554 -0.36674258 -0.51379079 39 12
4.8328071 -0.087880135 -0.26738566 99 27
4.7708464 -0.36847213 -0.44806847 35 16
4.7864962 -0.3705194 -0.38251993 37 20
4.7913585 -0.37089524 -0.31595746 34 24
4.80512 -0.37364632 -0.24985503 38 28
4.8180304 -0.37549478 -0.18342499 33 36
4.8250351 -0.3768872 -0.1165589 47 44
4.8361683 -0.37775558 -0.04874165 36 52
4.8424673 -0.3637948 0.017666182 50 60
4.8567085 -0.36486313 0.085226119 52 68
4.8471966 -0.22171991 -0.19259532 43 35
4.8544068 -0.22204733 -0.12546261 67 43
4.7321615 -0.65417606 -0.36397219 53 21
4.7366223 -0.65563685 -0.29774132 43 25
4.6457586 -0.92449272 -0.47667119 42 14
4.7402825 -0.65614474 -0.23145242 55 30
4.6468601 -0.92555612 -0.4097344 54 18
4.7478595 -0.65804076 -0.16529198 53 38
4.6469088 -0.9264093 -0.34449801 50 22
4.7965865 -0.52223074 -0.1078372 58 45
4.7088981 -0.65430295 -0.59184313 91 9
4.8024983 -0.52372324 -0.041007556 61 53
4.7198071 -0.65582252 -0.49620813 50 13
4.8074813 -0.52511626 0.025970371 51 61
4.7260976 -0.65753961 -0.43013209 46 17
4.7034912 -0.79873031 -0.22245885 68 31
4.758779 -0.66548473 -0.099063672 50 46
4.6800413 -0.79557496 -0.56593889 68 10
4.7712421 -0.52536762 -0.24049753 53 29
4.7791152 -0.5262354 -0.1733087 62 37
4.8694372 -0.24828549 -0.058286283 95 51
4.8382621 -0.10402676 -0.33503976 36 23
4.757946 -0.38335326 -0.51379079 40 12
4.8174973 -0.10443298 -0.26655096 101 27
4.7695308 -0.38512319 -0.44806847 40 16
4.8407116 -0.10576856 -0.2005838 99 34
4.7851739 -0.38722512 -0.38251993 49 20
4.7900343 -0.38761792 -0.31595746 37 24
4.8037863 -0.39041704 -0.24985503 50 28
4.8117099 -0.39190555 -0.18323395 39 36
4.8236899 -0.39372742 -0.1165589 53 44
4.8348203 -0.39463466 -0.04874165 44 52
4.8411679 -0.38069594 0.017666182 50 60
4.845438 -0.38103122 0.085049845 52 68
4.841403 -0.23839439 -0.19239555 51 35
4.8536019 -0.23899102 -0.12546261 98 43
4.7249131 -0.66998881 -0.36358947 57 21
4.7293649 -0.67146367 -0.29742822 55 25
4.647378 -0.94169563 -0.47717559 66 14
4.7330189 -0.67198372 -0.23120902 56 30
4.6387191 -0.94077706 -0.40930033 52 18
4.7405863 -0.6739049 -0.16511837 52 38
4.6338749 -0.94063276 -0.34376737 47 22
4.7897673 -0.53841186 -0.10772463 46 45
4.7065854 -0.67073607 -0.59184313 89 9
4.7907043 -0.53936404 -0.040922031 62 53
4.7125659 -0.67159045 -0.49568635 57 13
4.8056192 -0.54189426 0.025970371 43 61
4.7188444 -0.67332768 -0.42967978 56 17
4.6957541 -0.8142876 -0.22222419 57 31
4.7564268 -0.68209201 -0.099063672 53 46
4.6772351 -0.81190658 -0.56593889 60 10
4.7693791 -0.54201913 -0.24049753 46 29
4.772284 -0.54234964 -0.17312722 52 37
4.8635488 -0.2650111 -0.058226075 54 51
4.8179245 -0.12042734 -0.33364812 98 23
4.7565794 -0.39995927 -0.51379079 63 12
4.8270845 -0.12149423 -0.2671074 77 27
4.7681575 -0.40176964 -0.44806847 51 16
4.8453074 -0.12278896 -0.20079231 96 34
4.7788267 -0.40350744 -0.38211983 60 20
4.7836804 -0.40391672 -0.31562698 53 24
4.8023944 -0.40718302 -0.24985503 52 28
4.8103127 -0.40869915 -0.18323395 51 36
4.8173056 -0.41013935 -0.11643761 55 44
4.8334131 -0.41150892 -0.04874165 49 52
4.8398094 -0.39759243 0.017666182 50 60
4.8440781 -0.39794263 0.085049845 46 68
4.8405414 -0.25529259 -0.19239555 61 35
4.8527384 -0.25593179 -0.12546261 97 43
4.7176123 -0.68575889 -0.36320671 60 21
4.7269921 -0.68796813 -0.29742822 57 25
4.6391916 -0.95690346 -0.47667119 47 14
4.7257028 -0.68778002 -0.23096564 48 30
4.640285 -0.95797449 -0.4097344 54 18
4.7332602 -0.68972629 -0.16494474 45 38
4.6403284 -0.95882809 -0.34449801 46 22
4.7878585 -0.55512792 -0.10772463 64 45
4.7042155 -0.68716097 -0.59184313 48 9
4.7887926 -0.55608344 -0.040922031 41 53
4.7101932 -0.68803626 -0.49568635 57 13
4.7937655 -0.55750948 0.025916267 47 61
4.7115378 -0.68907315 -0.42922747 56 17
4.692883 -0.83067387 -0.22222419 53 31
4.7490711 -0.69796228 -0.098959826 53 46
4.6743731 -0.82822818 -0.56593889 62 10
4.767458 -0.55866408 -0.24049753 50 29
4.7703624 -0.55900472 -0.17312722 44 37
4.8625941 -0.28198645 -0.058226075 49 51
4.8274465 -0.13752285 -0.33434394 99 23
4.7551541 -0.41656041 -0.51379079 71 12
4.8266311 -0.13834316 -0.2671074 100 27
4.7667265 -0.41841117 -0.44806847 65 16
4.8398557 -0.13956027 -0.2005838 99 34
4.7724247 -0.41975006 -0.38171968 63 20
4.7822418 -0.42061239 -0.31562698 54 24
4.7909956 -0.42306668 -0.2493334 56 28
4.8088565 -0.42548779 -0.18323395 43 36
4.8158445 -0.42695239 -0.11643761 58 44
4.8269668 -0.42793721 -0.048691034 40 52
4.8334107 -0.41405794 0.017647857 43 60
4.837678 -0.41442302 0.084961705 33 68
4.8396211 -0.27218765 -0.19239555 52 35
4.8409352 -0.41555277 0.15239862 40 72
4.8468251 -0.27259043 -0.12533259 97 43
4.7151895 -0.70222229 -0.36320671 53 21
4.7196269 -0.70372665 -0.29711512 40 25
4.7232733 -0.70427161 -0.23096564 52 30
4.6271653 -0.97211033 -0.40886635 54 18
4.730824 -0.70624423 -0.16494474 37 38
4.6223159 -0.97193003 -0.34340206 42 22
4.7809277 -0.5712437 -0.10761207 42 45
4.7017879 -0.70357758 -0.59184313 38 9
4.7868223 -0.57279605 -0.040922031 42 53
4.7028446 -0.70373613 -0.49516457 56 13
4.8017187 -0.57543033 0.025970371 44 61
4.7091041 -0.70551527 -0.42922747 48 17
4.6850405 -0.8461597 -0.22198954 45 31
4.7466059 -0.71453536 -0.098959826 43 46
4.6714535 -0.84453982 -0.56593889 56 10
4.7605214 -0.57470316 -0.24024542 41 29
4.7634211 -0.57505351 -0.17294574 41 37
4.8565898 -0.29865313 -0.058165859 44 51
4.8219514 -0.15421626 -0.33399603 99 23
4.7586217 -0.43360698 -0.51432991 47 12
4.8261185 -0.15519041 -0.2671074 77 27
4.7652364 -0.4350476 -0.44806847 61 16
4.8443317 -0.15661231 -0.20079231 66 34
4.7709303 -0.43640637 -0.38171968 63 20
4.7807441 -0.43730298 -0.31562698 51 24
4.7894893 -0.43978781 -0.2493334 50 28
4.8023672 -0.44181406 -0.18304287 33 36
4.8143244 -0.44376022 -0.11643761 55 44
4.8204646 -0.44432548 -0.048640419 39 52
4.8269558 -0.43048352 0.01762953 42 60
4.831223 -0.43086365 0.084873579 25 68
4.8336544 -0.28878313 -0.19219576 46 35
4.8344774 -0.43200397 0.15224068 51 72
4.8508334 -0.28980377 -0.12546261 55 43
4.7127094 -0.7186771 -0.36320671 37 21
4.7122083 -0.71944213 -0.29680204 32 25
4.7158489 -0.71999919 -0.23072226 35 30
4.6286135 -0.98930115 -0.40930033 58 18
4.7283297 -0.72275358 -0.16494474 28 38
4.7739439 -0.58731794 -0.10749951 31 45
4.6993032 -0.7199856 -0.59184313 74 9
4.7798305 -0.58888972 -0.040879268 33 53
4.7003598 -0.72014785 -0.49516457 39 13
4.7897573 -0.59096241 0.025916267 53 61
4.7066126 -0.72194886 -0.42922747 42 17
4.6684766 -0.8608411 -0.56593889 54 10
4.7535305 -0.59070063 -0.23999332 34 29
4.7613845 -0.59167749 -0.17294574 29 37
4.8505282 -0.31528133 -0.058105644 36 51
4.7964597 -0.1701767 -0.33225647 57 23
4.75213 -0.44974723 -0.51379079 42 12
4.8558035 -0.31647348 0.0092729283 30 59
4.8255477 -0.17203574 -0.2671074 68 27
4.7587333 -0.45120943 -0.44759879 41 16
4.8437557 -0.17352124 -0.20079231 66 34
4.7693782 -0.45305738 -0.38171968 52 20
4.861074 -0.17413203 -0.13401952 102 42
4.7742219 -0.45351699 -0.31529647 36 24
4.7879252 -0.45650351 -0.2493334 46 28
4.7958217 -0.45810023 -0.18285181 44 36
4.8127465 -0.46056262 -0.11643761 42 44
4.7911792 -0.17501603 -0.39873189 43 19
4.8188848 -0.46114931 -0.048640419 23 52
4.8254237 -0.44733018 0.01762953 36 60
4.82969 -0.44772518 0.084873579 25 68
4.8326168 -0.30565402 -0.19219576 39 35
4.8329396 -0.44887683 0.15224068 39 72
4.8448038 -0.30642077 -0.12533259 46 43
4.7052469 -0.73435271 -0.36282399 29 21
4.7096682 -0.73588639 -0.29680204 23 25
4.7133069 -0.73645622 -0.23072226 29 30
4.6153989 -1.0033281 -0.40843228 53 18
4.7257781 -0.73925424 -0.16494474 25 38
4.7669058 -0.60335028 -0.10738694 35 45
4.6918602 -0.73561472 -0.5912208 80 9
4.7727871 -0.60494167 -0.040836513 31 53
4.6978178 -0.73655081 -0.49516457 31 13
4.7040639 -0.73837352 -0.42922747 28 17
4.6654434 -0.87713182 -0.56593889 37 10
4.75144 -0.60728991 -0.23999332 35 29
4.754334 -0.60766011 -0.17276427 29 37
4.8493986 -0.33221093 -0.058105644 32 51
4.8008204 -0.18710992 -0.33260438 57 23
4.7505312 -0.4663325 -0.51379079 43 12
4.8546691 -0.3334215 0.0092729283 43 59
4.8249178 -0.18887901 -0.2671074 46 27
4.7571297 -0.46781772 -0.44759879 31 16
4.8381286 -0.19023453 -0.2005838 42 34
4.7628069 -0.46921474 -0.38131955 40 20
4.8554416 -0.19090569 -0.13388078 101 42
4.7726097 -0.47017935 -0.31529647 30 24
4.7813334 -0.47272304 -0.24907261 37 28
4.7892213 -0.47434604 -0.18266073 32 36
4.8061357 -0.47686648 -0.11631633 32 44
4.7905388 -0.19173929 -0.39873189 96 19
4.8122702 -0.47747448 -0.048589803 28 52
4.8188553 -0.46369293 0.017611206 29 60
4.8181443 -0.4636246 0.084697306 28 68
4.8265352 -0.32218999 -0.19199596 39 35
4.8387179 -0.32299918 -0.12520258 36 43
4.7026553 -0.75077266 -0.36282399 30 21
4.7119985 -0.753111 -0.29711512 23 25
4.7107072 -0.75290418 -0.23072226 33 30
4.7133012 -0.75416332 -0.16459748 28 38
4.7647705 -0.61998618 -0.10738694 43 45
4.6843657 -0.75120062 -0.59059846 39 9
4.7706461 -0.62159812 -0.040836513 31 53
4.6903081 -0.75215566 -0.49464279 30 13
4.6916251 -0.75320739 -0.42832285 29 17
4.7492914 -0.62387192 -0.23999332 28 29
4.7521839 -0.62425226 -0.17276427 35 37
4.8432221 -0.34877896 -0.058045432 31 51
4.8051214 -0.20407563 -0.33295229 43 23
4.7538199 -0.48341444 -0.51432991 37 12
4.8534756 -0.35036543 0.0092729283 41 59
4.8192415 -0.20551005 -0.26682919 40 27
4.7604194 -0.48492429 -0.44806847 29 16
4.8424263 -0.20733254 -0.20079231 41 34
4.766099 -0.48634258 -0.38171968 29 20
4.8547459 -0.20785318 -0.13388078 60 42
4.7709394 -0.48683599 -0.31529647 28 24
4.7796545 -0.48941013 -0.24907261 40 28
4.7875361 -0.49106067 -0.18266073 31 36
4.8094139 -0.49415046 -0.11643761 38 44
4.7948179 -0.20867406 -0.39914939 53 19
4.8105741 -0.49426952 -0.048589803 30 52
4.8172078 -0.48051104 0.017611206 38 60
4.8214722 -0.4809359 0.084785447 30 68
4.8253808 -0.33903575 -0.19199596 33 35
4.8375611 -0.33988747 -0.12520258 37 43
4.7000055 -0.76718342 -0.36282399 33 21
4.7044163 -0.76874787 -0.29680204 38 25
4.7031221 -0.76853597 -0.23047888 52 30
4.71064 -0.77061123 -0.16459748 31 38
4.7625775 -0.63661456 -0.10738694 59 45
4.681715 -0.76754749 -0.59059846 38 9
4.7634912 -0.63758308 -0.04079375 32 53
4.6925611 -0.76932949 -0.49516457 35 13
4.693881 -0.77038771 -0.42877516 32 17
4.7470841 -0.64044613 -0.23999332 35 29
4.7499757 -0.6408366 -0.17276427 37 37
4.8419752 -0.36568284 -0.058045432 32 51
4.8043799 -0.22084738 -0.33295229 35 23
4.74716 -0.49948582 -0.51379079 36 12
4.8472371 -0.36692926 0.0092633283 39 59
4.8184948 -0.22233111 -0.26682919 35 27
4.7537475 -0.50101709 -0.44759879 30 16
4.8516245 -0.36725992 0.076709233 95 67
4.8366823 -0.22400612 -0.2005838 38 34
4.7643719 -0.50297642 -0.38171968 36 20
4.8489976 -0.22456966 -0.13374203 68 42
4.7692108 -0.50348669 -0.31529647 29 24
4.7779169 -0.50609124 -0.24907261 36 28
4.7808247 -0.5072428 -0.18246968 33 36
4.8026891 -0.51040775 -0.11631633 46 44
4.7940602 -0.22540984 -0.39914939 80 19
4.8038483 -0.51053083 -0.048539195 33 52
4.8155007 -0.4973233 0.017611206 43 60
4.8098178 -0.496737 0.084609173 33 68
4.8241682 -0.35587743 -0.19199596 34 35
4.8363452 -0.35677165 -0.12520258 49 43
4.8707952 -0.21619684 -0.066732965 96 50
4.8558483 -0.073247902 -0.20962289 88 33
4.6923823 -0.78276289 -0.36244124 43 21
4.701704 -0.78516465 -0.29680204 37 25
4.7004108 -0.78494823 -0.23047888 53 30
4.707921 -0.78704977 -0.16459748 37 38
4.7603264 -0.6532352 -0.10738694 54 45
4.6887922 -0.78552794 -0.59184313 81 9
4.7612367 -0.65420687 -0.04079375 42 53
4.6849422 -0.78488159 -0.49464279 53 13
4.6911635 -0.78676772 -0.42877516 37 17
4.7448196 -0.6570127 -0.23999332 63 29
4.7477098 -0.65741318 -0.17276427 56 37
4.8406696 -0.38258225 -0.058045432 40 51
4.8035798 -0.23761645 -0.33295229 38 23
4.7453871 -0.5160535 -0.51379079 48 12
4.8459263 -0.38384706 0.0092633283 39 59
4.8176894 -0.23914944 -0.26682919 39 27
4.7519698 -0.51760775 -0.44759879 35 16
4.8552966 -0.38458616 0.076788642 95 67
4.8358712 -0.24088793 -0.2005838 53 34
4.7576323 -0.51906413 -0.38131955 38 20
4.8481846 -0.24149445 -0.13374203 74 42
4.7624645 -0.5195908 -0.31496596 34 24
4.7711573 -0.52222353 -0.2488118 53 28
4.7839913 -0.5244717 -0.18266073 37 36
4.7959094 -0.52662408 -0.11619504 55 44
4.7882686 -0.24189427 -0.39873189 50 19
4.8020368 -0.52729625 -0.048539195 40 52
4.8137355 -0.51412952 0.017611206 49 60
4.8080544 -0.51352334 0.084609173 40 68
4.8228965 -0.37271476 -0.19199596 40 35
4.8300862 -0.37326798 -0.12507257 55 43
4.860023 -0.23272502 -0.066595092 96 50
4.8655524 -0.090375371 -0.21005735 96 33
4.689621 -0.79913753 -0.36244124 54 21
4.694016 -0.80073112 -0.29648894 53 25
4.6976423 -0.80135095 -0.23047888 54 30
4.7002196 -0.80263585 -0.16442385 36 38
4.7530665 -0.66915035 -0.10727438 47 45
4.6860223 -0.80189008 -0.59184313 37 9
4.6821747 -0.80123031 -0.49464279 54 13
4.6883883 -0.80313814 -0.42877516 55 17
4.7424974 -0.67357117 -0.23999332 52 29
4.7404399 -0.67327863 -0.17258281 51 37
4.8393044 -0.39947701 -0.058045432 56 51
4.802721 -0.25438264 -0.33295229 40 23
4.743557 -0.53261477 -0.51379079 73 12
4.8445573 -0.40076017 0.0092633283 39 59
4.8168249 -0.25596482 -0.26682919 52 27
4.750134 -0.53419203 -0.44759879 41 16
4.8439598 -0.40071094 0.076629825 38 67
4.835001 -0.25776678 -0.2005838 56 34
4.7508388 -0.53511083 -0.38091943 44 20
4.847312 -0.25841627 -0.13374203 71 42
4.760622 -0.53621167 -0.31496596 41 24
4.7693057 -0.5388748 -0.2488118 53 28
4.7771673 -0.54060656 -0.18246968 47 36
4.7863865 -0.25771526 -0.46561661 96 15
4.7890749 -0.54279935 -0.11607374 61 44
4.802321 -0.25940487 -0.39998445 58 19
4.7951984 -0.54349267 -0.04848858 48 52
4.8069415 -0.53038162 0.017592879 54 60
4.8215666 -0.38954753 -0.19199596 49 35
4.8287544 -0.39012587 -0.12507257 64 43
4.8641744 -0.24994205 -0.066664033 63 50
4.8452306 -0.10693335 -0.20918845 85 33
4.6868029 -0.81550252 -0.36244124 44 21
4.6911922 -0.81711137 -0.29648894 47 25
4.6948161 -0.81774384 -0.23047888 58 30
4.7507019 -0.68573761 -0.10727438 56 45
4.6880803 -0.81909788 -0.59246546 45 9
4.6744504 -0.81671172 -0.49412099 56 13
4.6806512 -0.81863922 -0.42832285 50 17
4.7351761 -0.68940151 -0.23974125 53 29
4.7331161 -0.68910134 -0.17240132 46 37
4.8328996 -0.41593993 -0.05798522 41 51
4.8018036 -0.2711457 -0.33295229 59 23
4.7367306 -0.54859835 -0.51325166 80 12
4.8431287 -0.4176684 0.0092633283 39 59
4.8159022 -0.27277714 -0.26682919 56 27
4.7432952 -0.55019683 -0.4471291 63 16
4.8425317 -0.41761711 0.076629825 40 67
4.8290834 -0.27436191 -0.20037529 56 34
4.7489419 -0.55169117 -0.38091943 48 20
4.8413906 -0.27505428 -0.1336033 64 42
4.7537651 -0.55225092 -0.31463546 50 24
4.7673955 -0.55551952 -0.2488118 52 28
4.7752504 -0.55727869 -0.18246968 41 36
4.7755213 -0.27385709 -0.46464252 98 15
4.7871513 -0.55951303 -0.11607374 57 44
4.796412 -0.2758832 -0.39956692 57 19
4.7932725 -0.56022775 -0.04848858 35 52
4.8000937 -0.54659265 0.017574554 52 60
4.8151984 -0.40595752 -0.19179617 49 35
4.8273625 -0.40697899 -0.12507257 62 43
4.8532877 -0.26637718 -0.066526152 51 50
4.8737164 -0.26748714 0.00084561197 58 58
4.8548155 -0.12409328 -0.20962289 98 33
4.6790199 -0.83098412 -0.36205855 37 21
4.6833987 -0.83260661 -0.2961759 30 25
4.687017 -0.83325118 -0.23023552 58 30
4.73839 -0.70085257 -0.10704925 49 45
4.6803098 -0.83458483 -0.59184313 65 9
4.6715717 -0.83302355 -0.49412099 44 13
4.672864 -0.83409613 -0.4278706 38 17
4.7327409 -0.70592618 -0.23974125 47 29
4.7306814 -0.7056188 -0.17240132 30 37
4.831418 -0.43280733 -0.05798522 40 51
4.800828 -0.28790545 -0.33295229 63 23
4.734787 -0.56512928 -0.51325166 62 12
4.8366613 -0.43412617 0.0092537291 39 59
4.8099375 -0.28928915 -0.26655096 59 27
4.7413464 -0.56675071 -0.4471291 54 16
4.8410449 -0.43451813 0.076629825 39 67
4.8280969 -0.29121691 -0.20037529 46 34
4.7469873 -0.56826466 -0.38091943 48 20
4.8404012 -0.29195222 -0.1336033 53 42
4.7518086 -0.56884128 -0.31463546 38 24
4.7604694 -0.57156271 -0.24855098 55 28
4.7683158 -0.5733481 -0.1822786 23 36
4.7795033 -0.29082456 -0.46512958 96 15
4.7802062 -0.57562286 -0.11595245 53 44
4.7954197 -0.29262412 -0.39956692 58 19
4.7912874 -0.57695597 -0.04848858 30 52
4.7931905 -0.56276226 0.017556228 46 60
4.8137522 -0.42276326 -0.19179617 42 35
4.8209338 -0.42339155 -0.12494256 59 43
4.8473368 -0.28302804 -0.066457212 37 50
4.8577781 -0.28363189 0.00084299402 96 58
4.854352 -0.141039 -0.20962289 84 33
4.8667998 -0.14139104 -0.14259347 105 41
4.671185 -0.84642136 -0.36167583 37 21
4.6804638 -0.84894967 -0.2961759 39 25
4.6840801 -0.84960687 -0.23023552 54 30
4.7408566 -0.7181375 -0.10716181 42 45
4.6920094 -0.85358584 -0.59371012 45 9
4.6686349 -0.8493253 -0.49412099 54 13
4.6699238 -0.85040241 -0.4278706 38 17
4.7253113 -0.72168767 -0.23948915 37 29
4.7232504 -0.72137266 -0.17221984 36 37
4.8248997 -0.44920763 -0.057925008 42 51
4.7997937 -0.30466175 -0.33295229 61 23
4.7278523 -0.58104753 -0.51271254 57 12
4.8351164 -0.45100659 0.0092537291 38 59
4.808898 -0.30607721 -0.26655096 49 27
4.7343984 -0.58269012 -0.44665948 39 16
4.8345203 -0.45095119 0.076550409 38 67
4.8220649 -0.30775294 -0.20016678 39 34
4.7449746 -0.5848313 -0.38091943 46 20
4.8343639 -0.30853102 -0.13346457 44 42
4.749794 -0.58542472 -0.31463546 25 24
4.7584453 -0.58817637 -0.24855098 43 28
4.7662859 -0.58998919 -0.1822786 35 36
4.7734933 -0.30718955 -0.46464252 61 15
4.7732077 -0.59169102 -0.11583117 36 44
4.7893963 -0.30904338 -0.39914939 53 19
4.7842827 -0.5930627 -0.048437964 32 52
4.7911963 -0.57949018 0.017556228 47 60
4.807272 -0.43911099 -0.1915964 40 35
4.8194265 -0.44021714 -0.12494256 52 43
4.8463197 -0.29994667 -0.066457212 32 50
4.8667393 -0.30119917 0.00084473926 38 58
4.8438454 -0.15766568 -0.20918845 68 33
4.8662767 -0.15837847 -0.14259347 100 41
4.6731038 -0.86362934 -0.36205855 39 21
4.6676579 -0.86346352 -0.29554972 25 25
4.7284422 -0.73314893 -0.10693668 37 45
4.684124 -0.86905223 -0.59308779 37 9
4.6607533 -0.86470801 -0.49359927 33 13
4.6669269 -0.86669827 -0.4278706 37 17
4.7178297 -0.73740602 -0.23923706 35 29
4.7207036 -0.73785549 -0.17221984 30 37
4.8233018 -0.46604696 -0.057925008 28 51
4.7937245 -0.32108372 -0.33260438 49 23
4.7307267 -0.59817028 -0.51325166 49 12
4.828536 -0.4674015 0.0092441309 29 59
4.8078003 -0.32286155 -0.26655096 40 27
4.7323351 -0.59921271 -0.44665948 36 16
4.8279405 -0.46734405 0.076471008 39 67
4.8159771 -0.32425037 -0.19995828 30 34
4.7379599 -0.60076445 -0.38051933 35 20
4.8332577 -0.32540417 -0.13346457 38 42
4.7427721 -0.60137409 -0.31430498 28 24
4.75141 -0.60415351 -0.24829017 32 28
4.7592402 -0.60599238 -0.18208753 25 36
4.7723918 -0.32385027 -0.46464252 48 15
4.7661548 -0.60771734 -0.11570988 37 44
4.7833176 -0.32542425 -0.39873189 45 19
4.7772236 -0.60912746 -0.048387349 29 52
4.7841825 -0.59559393 0.017537901 38 60
4.7957616 -0.45494851 -0.19119681 42 35
4.8128834 -0.45656699 -0.12481254 35 43
4.8452435 -0.31686163 -0.066457212 29 50
4.8506904 -0.31721485 0.00084212131 46 58
4.8432655 -0.17457291 -0.20918845 60 33
4.8557048 -0.17501163 -0.14229855 100 41
4.6651621 -0.87901145 -0.36167583 35 21
4.6646152 -0.87975138 -0.29554972 25 25
4.6577067 -0.88097185 -0.49359927 32 13
4.6638732 -0.88298368 -0.4278706 23 17
4.7152271 -0.75386989 -0.23923706 28 29
4.7180991 -0.75432938 -0.17221984 31 37
4.8166704 -0.48238403 -0.057864793 27 51
4.7875986 -0.33746707 -0.33225647 42 23
4.7236805 -0.61403978 -0.51271254 37 12
4.8169246 -0.48325843 0.0092249317 30 59
4.8066444 -0.3396419 -0.26655096 33 27
4.7302151 -0.61572796 -0.44665948 33 16
4.8213053 -0.48369646 0.0763916 27 67
4.8148165 -0.3410593 -0.19995828 29 34
4.7358341 -0.61729932 -0.38051933 37 20
4.8271065 -0.34192303 -0.13332583 34 42
4.7356968 -0.61728144 -0.31397447 30 24
4.7492719 -0.62073535 -0.24829017 29 28
4.7570958 -0.62260157 -0.18208753 28 36
4.7662678 -0.34015557 -0.4641555 41 15
4.7689605 -0.62499958 -0.11583117 43 44
4.7771826 -0.34176636 -0.39831436 40 19
4.7750678 -0.62579936 -0.048387349 28 52
4.7941446 -0.47168607 -0.19119681 38 35
4.8112607 -0.47336429 -0.12481254 48 43
4.8391194 -0.3334319 -0.066388279 28 50
4.8495526 -0.33414501 0.00084212131 41 58
4.8590474 -0.33479396 0.068350926 97 66
4.837635 -0.19128449 -0.20897122 50 33
4.8600588 -0.19215377 -0.14244601 68 41
4.6620655 -0.89529055 -0.36167583 34 21
4.686017 -0.90074682 -0.29711512 29 25
4.6643682 -0.89911067 -0.49464279 39 13
4.6558738 -0.89831322 -0.42741829 30 17
4.7125669 -0.77032453 -0.23923706 31 29
4.710506 -0.7699874 -0.17203836 31 37
4.8149576 -0.49919438 -0.057864793 32 51
4.7863913 -0.35417685 -0.33225647 37 23
4.721508 -0.63052469 -0.51271254 41 12
4.8152084 -0.50006974 0.0092249317 41 59
4.8004508 -0.35605171 -0.26627269 35 27
4.7280369 -0.63223577 -0.44665948 36 16
4.8195872 -0.50052303 0.0763916 29 67
4.8185778 -0.35823169 -0.20016678 36 34
4.7336502 -0.63382673 -0.38051933 35 20
4.8258829 -0.35877073 -0.13332583 36 42
4.7335134 -0.63380837 -0.31397447 33 24
4.880404 -0.22024783 -0.075334787 103 49
4.747076 -0.63730967 -0.24829017 34 28
4.7548938 -0.63920319 -0.18208753 33 36
4.7650514 -0.3567909 -0.4641555 36 15
4.761795 -0.64097631 -0.11570988 46 44
4.7809291 -0.35880989 -0.39873189 37 19
4.7678995 -0.6417973 -0.048336737 31 52
4.792469 -0.48841786 -0.19119681 38 35
4.8195248 -0.49116609 -0.12507257 50 43
4.8329396 -0.34996322 -0.066319339 29 50
4.84337 -0.35071269 0.00084124861 45 58
4.8478761 -0.35103652 0.068209551 99 66
4.8369379 -0.20816983 -0.20897122 47 33
4.8493714 -0.20869529 -0.14215109 60 41
4.6589117 -0.91155881 -0.36167583 40 21
4.6485672 -0.91037351 -0.29492357 32 25
4.646564 -0.91250712 -0.49307746 56 13
4.6527095 -0.91455972 -0.42741829 35 17
4.7049236 -0.78594631 -0.23898494 48 29
4.7077899 -0.78642541 -0.17203836 39 37
4.8082147 -0.51546741 -0.057804577 36 51
4.7851262 -0.3708823 -0.33225647 38 23
4.7192788 -0.64700204 -0.51271254 43 12
4.8134336 -0.51687491 0.0092249317 40 59
4.7991786 -0.37280622 -0.26627269 39 27
4.7258015 -0.64873582 -0.44665948 33 16
4.81284 -0.51681131 0.076312184 36 67
4.8123178 -0.37466449 -0.19995828 36 34
4.7264719 -0.64966828 -0.38011917 37 20
4.8196182 -0.37522879 -0.13318709 49 42
4.7312722 -0.65032756 -0.31397447 36 24
4.864625 -0.23656531 -0.075101793 97 49
4.744823 -0.65387619 -0.24829017 56 28
4.7526336 -0.65579695 -0.18208753 34 36
4.7687387 -0.37380797 -0.46464252 37 15
4.7595291 -0.6575942 -0.11570988 57 44
4.7796474 -0.37549627 -0.39873189 34 19
4.7656307 -0.65843648 -0.048336737 36 52
4.7857661 -0.50462151 -0.19099702 43 35
4.8128104 -0.50746393 -0.12494256 51 43
4.8316889 -0.36683115 -0.066319339 37 50
4.8421164 -0.36761704 0.00084124861 52 58
4.8516073 -0.36833233 0.068280235 38 66
4.8361816 -0.22505264 -0.20897122 40 33
4.8436213 -0.22539306 -0.14200363 69 41
4.6508126 -0.92683989 -0.36129308 47 21
4.6698279 -0.93148351 -0.29648894 38 25
4.6531014 -0.93067491 -0.49412099 57 13
4.6494889 -0.93079513 -0.42741829 43 17
4.7021513 -0.80236477 -0.23898494 46 29
4.7000895 -0.80201274 -0.17185688 41 37
4.806386 -0.53224808 -0.057804577 57 51
4.783802 -0.38758329 -0.33225647 38 23
4.7169909 -0.6634714 -0.51271254 60 12
4.8115997 -0.53367376 0.0092249317 40 59
4.7978477 -0.3895562 -0.26627269 45 27
4.7185788 -0.66453439 -0.44618979 37 16
4.8060369 -0.53305864 0.076232776 94 67
4.8109803 -0.3914603 -0.19995828 37 34
4.7241745 -0.66616273 -0.38011917 60 20
4.8182788 -0.39205009 -0.13318709 55 42
4.7289729 -0.66683882 -0.31397447 37 24
4.8687615 -0.25380096 -0.075179458 97 49
4.7375674 -0.66973639 -0.24802937 63 28
4.745368 -0.67168307 -0.18189646 38 36
4.7674046 -0.39045173 -0.46464252 39 15
4.7522554 -0.67350316 -0.11558859 57 44
4.7783074 -0.39217806 -0.39873189 39 19
4.7583523 -0.67436659 -0.048286121 43 52
4.7839756 -0.52132386 -0.19099702 50 35
4.8060398 -0.5237208 -0.12481254 65 43
4.830379 -0.38369468 -0.066319339 43 50
4.8408036 -0.38451695 0.00084124861 49 58
4.8403234 -0.38447908 0.068138868 40 66
4.8303771 -0.2416869 -0.20875397 41 33
4.8737173 -0.38796908 0.13640657 69 71
4.8428049 -0.24229906 -0.14200363 99 41
4.6377788 -0.9410826 -0.36052766 55 21
4.6364536 -0.94502681 -0.42651367 56 17
4.6993217 -0.81877345 -0.23898494 51 29
4.7995315 -0.54845637 -0.057744369 50 51
4.7824202 -0.4042795 -0.33225647 64 23
4.7146468 -0.67993283 -0.51271254 65 12
4.8097076 -0.55046606 0.0092249317 38 59
4.7914839 -0.40588281 -0.26599446 54 27
4.7162304 -0.68100119 -0.44618979 48 16
4.8046064 -0.40783161 -0.19974977 48 34
4.716888 -0.68193662 -0.37971905 54 20
4.8168812 -0.40886664 -0.13318709 51 42
4.7266164 -0.68334198 -0.31397447 55 24
4.8578629 -0.27024692 -0.075024128 76 49
4.7302594 -0.68555391 -0.24776855 54 28
4.7380505 -0.68752652 -0.1817054 46 36
4.7660127 -0.40709072 -0.46464252 57 15
4.7498755 -0.6900875 -0.11558859 56 44
4.7769098 -0.40885508 -0.39873189 48 19
4.7821264 -0.53801984 -0.19099702 46 35
4.7942486 -0.53937954 -0.12455252 62 43
4.82901 -0.40055352 -0.066319339 40 50
4.8394318 -0.40141216 0.00084124861 52 58
4.8339696 -0.40096211 0.068068191 45 66
4.829504 -0.25854659 -0.20875397 57 33
4.8324847 -0.40168902 0.13528274 99 71
4.8419294 -0.25920215 -0.14200363 99 41
4.6344652 -0.95726568 -0.36052766 52 21
4.6526275 -0.96525812 -0.42832285 58 17
4.6915193 -0.8342973 -0.23873284 44 29
4.7975879 -0.56520647 -0.057744369 41 51
4.7760105 -0.42053607 -0.33190855 58 23
4.7073269 -0.69565964 -0.51217341 60 12
4.8027911 -0.5666675 0.0092153316 39 59
4.7850652 -0.42216983 -0.26571625 54 27
4.7089 -0.69673169 -0.44572011 55 16
4.803154 -0.4246003 -0.19974977 39 34
4.7095485 -0.69766754 -0.37931892 49 20
4.8104463 -0.42524087 -0.13304837 50 42
4.7192674 -0.69910616 -0.31364396 53 24
4.8518987 -0.28691107 -0.074946463 50 49
4.7278376 -0.70206147 -0.24776855 58 28
4.8624067 -0.28837591 -0.0075954758 96 57
4.7306795 -0.70332688 -0.18151434 40 36
4.7596054 -0.42328662 -0.4641555 53 15
4.7424932 -0.70592809 -0.1154673 49 44
4.7704902 -0.42508766 -0.39831436 56 19
4.7802191 -0.55470932 -0.19099702 46 35
4.792336 -0.55611134 -0.12455252 58 43
4.8275824 -0.41740748 -0.066319339 43 50
4.8330197 -0.41787457 0.00084037601 46 58
4.8325405 -0.41783342 0.068068191 36 66
4.8235841 -0.27512252 -0.20853674 40 33
4.8310533 -0.41855508 0.13528274 97 71
4.8360047 -0.2758213 -0.14185616 98 41
4.6457305 -0.97651851 -0.36167583 50 21
4.6248713 -0.97634202 -0.42606142 67 17
4.6885781 -0.85066867 -0.23873284 43 29
4.7955856 -0.58194977 -0.057744369 33 51
4.7745137 -0.43720487 -0.33190855 57 23
4.7048697 -0.71208704 -0.51217341 53 12
4.7958202 -0.58282745 0.0092057334 38 59
4.7835622 -0.43887022 -0.26571625 50 27
4.7015171 -0.71241939 -0.44525042 51 16
4.7966676 -0.44090936 -0.19954126 34 34
4.7070847 -0.71410275 -0.37931892 45 20
4.8089328 -0.44202989 -0.13304837 46 42
4.7167983 -0.71557528 -0.31364396 44 24
4.8458781 -0.30353695 -0.074868798 39 49
4.7253585 -0.71856034 -0.24776855 55 28
4.85638 -0.30503753 -0.007587621 96 57
4.7281952 -0.71983582 -0.18151434 35 36
4.7580986 -0.43989819 -0.4641555 39 15
4.7350597 -0.72172558 -0.11534601 42 44
4.7689772 -0.44173717 -0.39831436 55 19
4.7732935 -0.57080048 -0.19079725 42 35
4.7903662 -0.57283628 -0.12455252 48 43
4.8161368 -0.43336573 -0.066181459 37 50
4.8265519 -0.43429708 0.00083950337 42 58
4.8260732 -0.43425426 0.0679975 26 66
4.8225951 -0.29195833 -0.20853674 39 33
4.8046718 -0.43318585 0.13458033 80 71
4.8350129 -0.29270044 -0.14185616 59 41
4.6179199 -0.98750836 -0.35976219 49 21
4.6409078 -0.99666864 -0.4278706 48 17
4.6806707 -0.86612058 -0.23848078 38 29
4.7885633 -0.59806788 -0.057684153 30 51
4.7729583 -0.45386839 -0.33190855 52 23
4.7023554 -0.72850567 -0.51217341 40 12
4.798718 -0.60018331 0.0092153316 37 59
