# .PCD v0.7 - Point Cloud Data file format
VERSION 0.7
FIELDS x y z intensity ring
SIZE 4 4 4 4 2
TYPE F F F F U
COUNT 1 1 1 1 1
WIDTH 1196
HEIGHT 1
VIEWPOINT 0 0 0 1 0 0 0
POINTS 1196
DATA ascii
4.4923429 -0.2082493 -0.1861968 35 34
4.4025488 -0.46481958 -0.35251051 31 20
4.5044909 -0.2088052 -0.12416922 40 42
4.4070172 -0.46529081 -0.29117 32 24
4.5597343 -0.078561977 -0.070286579 97 49
4.420403 -0.46826264 -0.23029435 32 28
4.4181228 -0.46880117 -0.16852172 29 36
4.455018 -0.20887898 -0.43298447 31 15
4.4348645 -0.47135833 -0.10734092 38 44
4.4605899 -0.2099171 -0.37117553 43 19
4.440906 -0.4719997 -0.044844341 25 52
4.4654217 -0.32953271 -0.17761125 37 35
4.4774332 -0.3304148 -0.11584164 35 43
4.5111752 -0.2004326 -0.061769363 37 50
4.5215907 -0.20088917 0.00078365277 43 58
4.5361271 -0.2015264 0.063685812 35 66
4.5162044 -0.068386689 -0.19485155 32 33
4.5334797 -0.068633944 -0.13271368 58 41
4.3186827 -0.72029406 -0.33335412 25 21
4.3128858 -0.72009879 -0.27206853 25 25
4.3169508 -0.72310281 -0.54454547 46 9
4.322041 -0.72395736 -0.45603144 20 13
4.3179555 -0.72404623 -0.39440081 40 17
4.3754907 -0.60271674 -0.58839691 29 8
4.3738418 -0.60560125 -0.22108628 33 29
4.3616562 -0.60391253 -0.15860921 37 37
4.4818058 -0.35433906 -0.053710092 38 51
4.4697905 -0.22129145 -0.30964214 37 23
4.3994632 -0.47847405 -0.47605169 29 12
4.487042 -0.3555392 0.0085721789 37 59
4.4836106 -0.22275183 -0.24818732 42 27
4.4006133 -0.47937617 -0.41425198 32 16
4.4864888 -0.35549554 0.070912361 35 67
4.4915886 -0.22392924 -0.1861968 37 34
4.4008994 -0.4801845 -0.35251051 32 20
4.5037351 -0.22452754 -0.12416922 47 42
4.4004073 -0.48013082 -0.29083952 39 24
4.5444365 -0.094179533 -0.070053585 44 49
4.4137769 -0.48314714 -0.23003353 38 28
4.4164596 -0.48422042 -0.16852172 40 36
4.4542623 -0.22442862 -0.43298447 37 15
4.4282241 -0.48629105 -0.10721964 44 44
4.464807 -0.22573482 -0.37159306 39 19
4.4292917 -0.48640817 -0.044743117 37 52
4.4592633 -0.3447347 -0.17741147 36 35
4.4712682 -0.34565845 -0.11571163 44 43
4.510448 -0.21617833 -0.061769363 36 50
4.5208616 -0.21667126 0.00078365277 44 58
4.5254078 -0.21688643 0.063544445 44 66
4.5209327 -0.084239677 -0.19506875 47 33
4.509069 -0.21690181 0.12587054 96 71
4.5332131 -0.084458321 -0.13271368 50 41
4.3112273 -0.73452556 -0.33297139 31 21
4.3201842 -0.73683089 -0.27269471 40 25
4.3145871 -0.73819929 -0.45550966 25 13
4.3154016 -0.73911434 -0.39440081 36 17
4.368453 -0.6172924 -0.5877313 28 8
4.3717017 -0.62086511 -0.22108628 39 29
4.3644691 -0.61983705 -0.15879069 34 37
4.4755583 -0.36957163 -0.053649876 41 51
4.4640098 -0.23663156 -0.30929422 41 23
4.3928261 -0.493274 -0.47551256 32 12
4.4807911 -0.37078923 0.0085625798 37 59
4.4778204 -0.238139 -0.24790908 44 27
4.3939662 -0.49417847 -0.4137823 34 16
4.4802384 -0.37074369 0.07083296 57 67
4.4857917 -0.23934326 -0.18598831 39 34
4.3942442 -0.4949863 -0.35211042 41 20
4.4979324 -0.2399838 -0.12403048 46 42
4.3987045 -0.49548817 -0.29083952 37 24
4.5440803 -0.11004201 -0.070053585 44 49
4.4120636 -0.49855113 -0.23003353 39 28
4.4097776 -0.49907252 -0.16833065 47 36
4.448483 -0.23971081 -0.43249747 42 15
4.4264994 -0.50174546 -0.10721964 47 44
4.454041 -0.24078657 -0.37075803 42 19
4.427567 -0.50186634 -0.044743117 40 52
4.4580331 -0.36029834 -0.17741147 41 35
4.4700351 -0.36126399 -0.11571163 49 43
4.504673 -0.23166758 -0.061700422 41 50
4.5150847 -0.23219687 0.00078278017 45 58
4.51963 -0.2324279 0.063473761 35 66
4.5206108 -0.10002016 -0.19506875 48 33
4.4933095 -0.23187625 0.12544909 97 71
4.5328903 -0.10028167 -0.13271368 59 41
4.3037257 -0.74871373 -0.33258864 43 21
4.3070855 -0.75239807 -0.45498791 31 13
4.3078904 -0.75331384 -0.3939485 39 17
4.366272 -0.63253736 -0.5877313 31 8
4.3695078 -0.63612139 -0.22108628 43 29
4.4792228 -0.3856191 -0.053710092 39 51
4.4631567 -0.25221241 -0.30929422 43 23
4.3861399 -0.50803357 -0.47497341 39 12
4.4744873 -0.38599989 0.0085529806 37 59
4.4719772 -0.25348851 -0.24763083 46 27
4.3922143 -0.50951326 -0.4137823 37 16
4.4749527 -0.25443891 -0.18557128 37 34
4.3875384 -0.50974751 -0.35171029 44 20
4.4920774 -0.25540233 -0.12389174 45 42
4.3870363 -0.50968915 -0.29017851 39 24
4.538671 -0.12576878 -0.069975927 38 49
4.4053373 -0.51337177 -0.22977272 43 28
4.5491824 -0.12684597 -0.0070927762 97 57
4.4030457 -0.51388389 -0.16813959 41 36
4.447619 -0.25523743 -0.43249747 43 15
4.4147916 -0.51603431 -0.10697706 49 44
4.4531732 -0.25633261 -0.37075803 44 19
4.4658799 -0.11211228 -0.50488698 96 11
4.456748 -0.37585759 -0.17741147 41 35
4.4637656 -0.37644687 -0.11558161 48 43
4.4988441 -0.24711919 -0.061631482 36 50
4.5142469 -0.24795605 0.00078278017 44 58
4.5088067 -0.24766049 0.063332394 35 66
4.5152407 -0.11567565 -0.19485155 38 33
4.487483 -0.24728742 0.12530862 97 71
4.5225201 -0.11585609 -0.13241875 60 41
4.305995 -0.7646054 -0.33297139 46 21
4.2946424 -0.76567864 -0.45394433 46 13
4.3003325 -0.76746982 -0.39349622 44 17
4.3591352 -0.64704639 -0.5870657 40 8
4.3623219 -0.6506328 -0.22083421 46 29
4.4728689 -0.40080765 -0.053649876 40 51
4.4572701 -0.26749438 -0.30894634 44 23
4.3794041 -0.5227524 -0.47443432 43 12
4.468133 -0.40117106 0.0085433805 43 59
4.4660816 -0.26880011 -0.24735259 40 27
4.3854671 -0.52425164 -0.41331264 46 16
4.4740372 -0.27005786 -0.18557128 39 34
4.3857327 -0.52505976 -0.35171029 41 20
4.4911585 -0.27108106 -0.12389174 42 42
4.3802762 -0.52440721 -0.289848 42 24
4.5332074 -0.14145915 -0.069898255 38 49
4.398561 -0.52815145 -0.22951193 42 28
4.5387173 -0.14241943 -0.0070770672 96 57
4.3962641 -0.52865434 -0.16794853 36 36
4.4417334 -0.2704615 -0.43201041 45 15
4.4129629 -0.53144163 -0.10697706 49 44
4.4522514 -0.2718755 -0.37075803 46 19
4.4505639 -0.1272869 -0.50318885 50 11
4.4504318 -0.39097682 -0.17721169 42 35
4.4624248 -0.39202607 -0.11558161 46 43
4.4979544 -0.26282158 -0.061631482 30 50
4.5083618 -0.2634235 0.00078190747 43 58
4.507915 -0.26339763 0.063332394 36 66
4.5098157 -0.13129486 -0.19463432 40 33
4.4865918 -0.26295012 0.12530862 82 71
4.5220876 -0.13164192 -0.13241875 55 41
4.2934885 -0.77785039 -0.33220592 44 21
4.3017282 -0.78244853 -0.45498791 51 13
4.2927289 -0.78158236 -0.39304391 45 17
4.3568501 -0.66225868 -0.5870657 48 8
4.360024 -0.66585606 -0.22083421 41 29
4.4614863 -0.41549483 -0.053529449 29 51
4.4513311 -0.28273836 -0.30859843 40 23
4.3824863 -0.53864193 -0.47497341 42 12
4.4667053 -0.41676527 0.0085433805 37 59
4.4601345 -0.28407374 -0.24707438 32 27
4.3836098 -0.53955656 -0.41331264 40 16
4.4680815 -0.2853581 -0.18536277 24 34
4.3789258 -0.53975648 -0.35131013 38 20
4.4901848 -0.28675649 -0.12389174 35 42
4.3784189 -0.53969407 -0.289848 39 24
4.5176964 -0.15677439 -0.069665268 23 49
4.3917346 -0.54289007 -0.22925112 42 28
4.5431895 -0.15843175 -0.0070849215 28 57
4.3894343 -0.54338378 -0.16775745 39 36
4.4407625 -0.2859644 -0.43201041 49 15
4.4061208 -0.54622817 -0.10685576 41 44
4.4463029 -0.28709704 -0.3703405 40 19
4.4600229 -0.14313185 -0.50432092 42 11
4.4390888 -0.40560371 -0.1768121 34 35
4.4560513 -0.40714744 -0.1154516 44 43
4.4920192 -0.27821466 -0.061562542 17 50
4.5024242 -0.27885288 0.00078103482 35 58
4.5019779 -0.27882549 0.06326171 15 66
4.4993443 -0.14671895 -0.19419985 30 33
4.4806581 -0.27830282 0.12516813 42 71
4.5216007 -0.14742614 -0.13241875 42 41
4.2907472 -0.79283267 -0.33220592 43 21
4.2843037 -0.79473335 -0.45342255 45 13
4.2899742 -0.79656202 -0.39304391 40 17
4.3496151 -0.67670053 -0.58640009 49 8
4.4550323 -0.43058664 -0.053469237 18 51
4.4453402 -0.2979441 -0.30825049 35 23
4.3707161 -0.55269039 -0.47389519 20 12
4.4502926 -0.43091419 0.0085145831 35 59
4.459115 -0.29964077 -0.24707438 39 27
4.3767614 -0.55423021 -0.41284296 30 16
4.4670582 -0.30095285 -0.18536277 19 34
4.3770151 -0.55503851 -0.35131013 14 20
4.4791827 -0.3017624 -0.12361427 28 42
4.3715591 -0.55434734 -0.28951752 21 24
4.5171218 -0.17254312 -0.069665268 20 49
4.3898134 -0.55821675 -0.22925112 31 28
4.5326157 -0.17391433 -0.0070692124 40 57
4.3825536 -0.55807179 -0.16756637 17 36
4.4397373 -0.30146381 -0.43201041 36 15
4.5572567 -0.17483939 0.056071632 97 65
4.3992295 -0.56097347 -0.10673448 43 44
4.4403019 -0.30228037 -0.36992297 36 19
4.4495664 -0.15835434 -0.50318885 41 11
4.4376454 -0.42109656 -0.1768121 31 35
4.4496264 -0.42222911 -0.11532159 29 43
4.4910212 -0.29389304 -0.061562542 16 50
4.4964342 -0.29424402 0.00078016211 28 58
4.4959884 -0.29421511 0.063191026 16 66
4.498805 -0.1624237 -0.19419985 27 33
4.4796596 -0.2939415 0.12516813 95 71
4.5110693 -0.16285627 -0.13212384 35 41
4.2871675 -0.81153202 -0.39304391 51 17
4.3472266 -0.69187945 -0.58640009 50 8
4.4535027 -0.44613498 -0.053469237 19 51
4.4392977 -0.31311145 -0.30790257 21 23
4.3638306 -0.56730342 -0.47335604 20 12
4.4537368 -0.44694346 0.0085241832 31 59
4.4530621 -0.31485504 -0.24679613 23 27
4.3748002 -0.56950456 -0.41284296 23 16
4.4659805 -0.31654397 -0.18536277 22 34
4.375051 -0.57031375 -0.35131013 14 20
4.4781022 -0.31739587 -0.12361427 31 42
4.3695979 -0.5696035 -0.28951752 14 24
4.5164919 -0.18830977 -0.069665268 21 49
4.3828869 -0.57289016 -0.2289903 20 28
4.5269852 -0.18953003 -0.0070613576 33 57
4.3805785 -0.5733664 -0.16756637 20 36
4.4386578 -0.31695953 -0.43201041 35 15
4.5416322 -0.19013113 0.055885755 96 65
4.43922 -0.31777805 -0.36992297 25 19
4.4440227 -0.17369542 -0.5026229 38 11
4.4311767 -0.43609676 -0.17661232 32 35
4.4431515 -0.43727088 -0.11519157 29 43
4.4799919 -0.30888605 -0.061424665 21 50
4.4903908 -0.30959681 0.00077928946 29 58
4.4899454 -0.30956638 0.063120343 21 66
4.4932194 -0.17793296 -0.19398262 28 33
4.5104737 -0.17860185 -0.13212384 32 41
4.2745314 -0.82460213 -0.39213935 50 17
4.4469442 -0.46116391 -0.053409025 25 51
4.4381771 -0.32860559 -0.30790257 27 23
4.3667512 -0.58319002 -0.47389519 24 12
4.4469571 -0.33003071 -0.24651788 28 27
4.3678513 -0.58411276 -0.41237327 23 16
4.459866 -0.33176365 -0.18515427 34 34
4.3631544 -0.58426034 -0.35050991 23 20
4.4669976 -0.33228984 -0.1233368 36 42
4.3626375 -0.58419126 -0.28918701 23 24
4.5108128 -0.20385259 -0.069587596 24 49
4.3759112 -0.58752191 -0.22872949 29 28
4.5262961 -0.20533101 -0.0070613576 36 57
4.3785505 -0.58865398 -0.16756637 20 36
4.4325619 -0.33208266 -0.43152335 26 15
4.5409408 -0.20598322 0.055885755 96 65
4.4380836 -0.33327189 -0.36992297 27 19
4.4433889 -0.1892069 -0.5026229 39 11
4.4296274 -0.45156178 -0.17661232 23 35
4.436625 -0.45227253 -0.11506156 32 43
4.4788861 -0.32452226 -0.061424665 27 50
4.4942698 -0.32562765 0.00078016211 39 58
4.4888377 -0.3252373 0.063120343 27 66
4.4925709 -0.19361615 -0.19398262 26 33
4.5048294 -0.19413424 -0.13197637 42 41
4.2765121 -0.84047991 -0.3925916 48 17
4.4453077 -0.47668383 -0.053409025 34 51
4.4370031 -0.34409571 -0.30790257 39 23
4.3646889 -0.59842932 -0.47389519 23 12
4.4457779 -0.34555146 -0.24651788 36 27
4.3657856 -0.59935588 -0.41237327 24 16
4.4537001 -0.34694445 -0.18494576 36 34
4.3610883 -0.59948701 -0.35050991 29 20
4.4658108 -0.34788054 -0.1233368 46 42
4.3605723 -0.59941614 -0.28918701 29 24
4.5050797 -0.21935801 -0.069509931 30 49
4.3738341 -0.6027931 -0.22872949 41 28
4.5205574 -0.2208896 -0.0070535024 42 57
4.3764691 -0.60393435 -0.16756637 25 36
4.431376 -0.34755313 -0.43152335 33 15
4.5302072 -0.2213531 0.055761844 44 65
4.4319258 -0.34837422 -0.36950544 33 19
4.4377384 -0.20449156 -0.5020569 37 11
4.4230556 -0.46649909 -0.17641252 28 35
4.4350195 -0.46775654 -0.11506156 41 43
4.4727411 -0.33977875 -0.061355725 38 50
4.4831347 -0.34056208 0.00077841681 45 58
4.4876752 -0.34090427 0.063120343 33 66
4.4918675 -0.20929697 -0.19398262 35 33
4.5041242 -0.20985784 -0.13197637 53 41
4.2637882 -0.85344446 -0.39168704 40 17
4.4336777 -0.4911007 -0.053288594 38 51
4.4308038 -0.35918167 -0.30755469 37 23
4.3576503 -0.61296934 -0.47335604 29 12
4.439568 -0.36066675 -0.24623965 43 27
4.3587375 -0.61389792 -0.41190359 30 16
4.4524617 -0.36248863 -0.18494576 39 34
4.3589687 -0.6147064 -0.35050991 38 20
4.4595871 -0.36306444 -0.12319807 47 42
4.3535123 -0.61393762 -0.28885651 38 24
4.5042863 -0.23508234 -0.069509931 42 49
4.3667588 -0.61735868 -0.2284687 43 28
4.5197587 -0.23666793 -0.0070535024 43 57
4.3693876 -0.6185078 -0.16737533 29 36
4.4301353 -0.36301944 -0.43152335 38 15
4.5194201 -0.23665048 0.055637926 50 65
4.4306827 -0.3638424 -0.36950544 37 19
4.4419603 -0.22022276 -0.5026229 29 11
4.4214001 -0.48193559 -0.17641252 39 35
4.428391 -0.48269504 -0.11493155 46 43
4.4715276 -0.35538945 -0.061355725 38 50
4.476934 -0.35581589 0.00077754416 46 58
4.47649 -0.35578087 0.062978975 32 66
4.4911094 -0.22497523 -0.19398262 48 33
4.4983721 -0.22533296 -0.1318289 59 41
4.436904 -0.5071401 -0.053348809 56 51
4.429523 -0.37464589 -0.30755469 42 23
4.350564 -0.62746775 -0.47281688 36 12
4.438282 -0.37616155 -0.24623965 45 27
4.3516417 -0.62839824 -0.41143396 34 16
4.4461918 -0.37760869 -0.18473725 41 34
4.3518634 -0.6292057 -0.35010979 48 20
4.458293 -0.37862909 -0.12319807 47 42
4.3513432 -0.62913048 -0.28885651 46 24
4.4984465 -0.25052994 -0.069432266 42 49
4.3596358 -0.63188207 -0.22820789 43 28
4.5139132 -0.25216866 -0.0070456485 44 57
4.3672023 -0.63375604 -0.16737533 39 36
4.4238825 -0.37806052 -0.43103629 40 15
4.5185666 -0.25242475 0.055637926 36 65
4.4244213 -0.37888405 -0.36908793 40 19
4.441164 -0.23572673 -0.5026229 42 11
4.4147263 -0.4968093 -0.17621274 39 35
4.4266791 -0.49815002 -0.11493155 47 43
4.4652772 -0.37058529 -0.061286785 34 50
4.4706817 -0.37103057 0.00077667146 46 58
4.4802036 -0.37181512 0.063049659 39 66
4.4803205 -0.24012442 -0.19354817 38 33
4.4925671 -0.24077053 -0.13168144 57 41
4.4182496 -0.38923603 -0.30685884 43 23
4.3483477 -0.64265019 -0.47281688 50 12
4.4319696 -0.39121586 -0.24596143 45 27
4.3494215 -0.64358449 -0.41143396 37 16
4.4448466 -0.39312646 -0.18473725 37 34
4.3447108 -0.64366287 -0.34970963 43 20
4.4519649 -0.39375174 -0.12305933 46 42
4.3441854 -0.64358509 -0.288526 42 24
4.4925532 -0.26593962 -0.069354601 38 49
4.3574038 -0.64709622 -0.22820789 43 28
4.5080137 -0.26763141 -0.0070377938 44 57
4.4175797 -0.39306241 -0.43054929 43 15
4.5026855 -0.2673195 0.055452053 38 65
4.4181085 -0.39388639 -0.3686704 43 19
4.4403143 -0.25122786 -0.5026229 48 11
4.4080019 -0.51164234 -0.17601295 34 35
4.4199471 -0.51302451 -0.11480154 48 43
4.4639564 -0.38616979 -0.061286785 39 50
4.4693589 -0.38663393 0.00077667146 46 58
4.4744668 -0.25548157 -0.19333094 41 33
4.4867091 -0.25617033 -0.131534 57 41
4.4168644 -0.4046562 -0.30685884 40 23
4.3411627 -0.6570816 -0.47227779 42 12
4.4256053 -0.40623057 -0.24568318 38 27
4.3422265 -0.65801764 -0.41096428 43 16
4.4334974 -0.40773049 -0.18432026 24 34
4.3375101 -0.6580779 -0.3493095 41 20
4.4455862 -0.4088349 -0.12292059 42 42
4.3369799 -0.65799755 -0.28819552 39 24
4.4915977 -0.28161997 -0.069354601 31 49
4.3501821 -0.66155231 -0.22794707 45 28
4.5070519 -0.28336573 -0.0070377938 42 57
4.4112248 -0.40802494 -0.43006223 41 15
4.5017242 -0.28303522 0.055452053 28 65
4.4117451 -0.40884927 -0.36825287 43 19
4.4394107 -0.2667259 -0.5026229 39 11
4.4012289 -0.52643448 -0.17581317 25 35
4.413167 -0.52785802 -0.11467152 52 43
4.4526224 -0.40085897 -0.061148912 37 50
4.4580226 -0.40134189 0.00077492616 44 58
4.4685616 -0.27080086 -0.19311371 40 33
4.4857883 -0.27183032 -0.131534 50 41
4.4154248 -0.42007148 -0.30685884 34 23
4.3388429 -0.67223096 -0.47227779 42 12
4.42416 -0.42167634 -0.24568318 29 27
4.3399034 -0.6731708 -0.41096428 41 16
4.4320474 -0.42320383 -0.18432026 17 34
4.3351865 -0.67321455 -0.3493095 39 20
4.4391561 -0.42387828 -0.12278185 35 42
4.3346567 -0.67313236 -0.28819552 17 24
4.4905872 -0.29729685 -0.069354601 18 49
4.3478456 -0.67673326 -0.22794707 43 28
4.5010462 -0.29876947 -0.0070299385 38 57
4.4097738 -0.42342049 -0.43006223 37 15
4.5007091 -0.29874742 0.055452053 19 65
4.4102912 -0.42424664 -0.36825287 39 19
4.4285364 -0.28159857 -0.50149083 36 11
4.3993645 -0.54179448 -0.17581317 32 35
4.4112973 -0.54325968 -0.11467152 41 43
4.4462175 -0.41593638 -0.061079971 18 50
4.4516153 -0.41643807 0.00077405351 38 58
4.462604 -0.28608203 -0.1928965 26 33
4.4848118 -0.287487 -0.131534 40 41
4.4040041 -0.4345082 -0.30616304 36 23
4.3315601 -0.68659467 -0.47173867 17 12
4.4176927 -0.43662891 -0.24540494 39 27
4.3326106 -0.68753618 -0.4104946 30 16
4.4255714 -0.43818271 -0.18411174 18 34
4.3278875 -0.68756175 -0.34890941 20 20
4.4326758 -0.43888181 -0.12264312 29 42
4.3322806 -0.68825907 -0.28819552 13 24
4.479547 -0.3122831 -0.069199272 20 49
4.3405256 -0.69112134 -0.22768626 40 28
4.4949875 -0.31413484 -0.0070220837 23 57
4.4033165 -0.43832099 -0.42957518 37 15
4.4896626 -0.31376719 0.055328134 19 65
4.4038248 -0.43914741 -0.36783534 25 19
4.4225688 -0.29672694 -0.50092483 38 11
4.3924899 -0.55652165 -0.17561337 21 35
4.4044151 -0.55802816 -0.11454151 29 43
4.4447384 -0.43145403 -0.061079971 19 50
4.4501348 -0.43197456 0.00077405351 21 58
4.4615784 -0.30165765 -0.1928965 28 33
4.4738073 -0.30247417 -0.13123907 33 41
4.4024606 -0.44987836 -0.30616304 30 23
4.3242307 -0.70091575 -0.47119951 14 12
4.4161415 -0.4520469 -0.24540494 26 27
4.330184 -0.70265567 -0.4104946 20 16
4.4240146 -0.45362815 -0.18411174 23 34
4.3254609 -0.70266473 -0.34890941 17 20
4.4261441 -0.4538452 -0.12250438 32 42
4.3249269 -0.70257801 -0.28786501 13 24
4.4734435 -0.32755679 -0.069121607 23 49
4.4938636 -0.32982337 -0.0070220837 30 57
4.4067101 -0.45419598 -0.43006223 27 15
4.4835539 -0.32907534 0.055266183 24 65
4.4022651 -0.45451698 -0.36783534 26 19
4.4215059 -0.31216279 -0.50092483 39 11
4.3905201 -0.5718509 -0.17561337 21 35
4.43823 -0.44646901 -0.061011031 22 50
4.4604979 -0.3172296 -0.1928965 23 33
4.4777098 -0.31843922 -0.13138653 37 41
4.4008632 -0.4652431 -0.30616304 39 23
4.316853 -0.71519399 -0.47066039 23 12
4.414537 -0.46745935 -0.24540494 31 27
4.3178835 -0.71613878 -0.40955529 20 16
4.4174356 -0.46854419 -0.18390323 28 34
4.3180652 -0.71694338 -0.34850928 29 20
4.4245329 -0.46929261 -0.12250438 41 42
4.3224478 -0.7176705 -0.28786501 20 24
4.4722729 -0.34317005 -0.069121607 29 49
4.487699 -0.34512863 -0.007014229 36 57
4.4001493 -0.469051 -0.42957518 39 15
4.4873629 -0.34510306 0.055328134 30 65
4.4006519 -0.46988097 -0.36783534 31 19
4.4203897 -0.32759482 -0.50092483 25 11
4.3884974 -0.58717316 -0.17561337 24 35
4.441618 -0.46247342 -0.061079971 28 50
4.4543819 -0.33243015 -0.19267927 27 33
4.4666023 -0.33333185 -0.13109161 47 41
4.3992124 -0.48060215 -0.30616304 40 23
4.319232 -0.73108727 -0.47119951 25 12
4.4029527 -0.4817861 -0.24484847 41 27
4.3202648 -0.7320376 -0.41002491 26 16
4.4157739 -0.48396108 -0.18390323 38 34
4.3155365 -0.73201191 -0.34850928 36 20
4.4228683 -0.48473427 -0.12250438 44 42
4.3149977 -0.73192054 -0.28753451 25 24
4.4710474 -0.3587791 -0.069121607 34 49
4.4814835 -0.36039487 -0.0070063747 42 57
4.3984857 -0.48440751 -0.42957518 36 15
4.4861312 -0.36076471 0.055328134 36 65
4.3989849 -0.48523927 -0.36783534 37 19
4.4241729 -0.34340316 -0.50149083 29 11
4.3814707 -0.60181028 -0.17541359 36 35
4.4250636 -0.47637829 -0.060873155 34 50
4.4482141 -0.34759188 -0.19246204 36 33
4.4604292 -0.34853607 -0.13094416 55 41
4.3925509 -0.49539936 -0.30581513 41 23
4.3166533 -0.74615973 -0.47119951 34 12
4.4012442 -0.49715236 -0.24484847 46 27
4.3176837 -0.7471137 -0.41002491 32 16
4.4090929 -0.49881339 -0.18369472 40 34
4.3080435 -0.74622136 -0.34810916 49 20
4.416182 -0.49961108 -0.12236565 46 42
4.3124161 -0.74697822 -0.28753451 31 24
4.469768 -0.37438375 -0.069121607 46 49
4.475215 -0.37562191 -0.0069985199 43 57
4.3918228 -0.49919912 -0.42908812 37 15
4.4748802 -0.37559408 0.055204224 45 65
4.3923135 -0.50003111 -0.36741787 37 19
4.4179945 -0.35844672 -0.50092483 35 11
4.379343 -0.61710072 -0.17541359 35 35
4.4333119 -0.49292073 -0.061011031 33 50
4.4469733 -0.36311686 -0.19246204 38 33
4.4591856 -0.3641037 -0.13094416 58 41
4.3858399 -0.51015592 -0.30546719 43 23
4.3140225 -0.76122314 -0.47119951 49 12
4.3945227 -0.51193786 -0.24457024 49 27
4.3101473 -0.76131546 -0.40955529 36 16
4.4023628 -0.51362509 -0.18348622 37 34
4.3005047 -0.76038748 -0.347709 44 20
4.4094462 -0.51444721 -0.1222269 48 42
4.4634533 -0.38955337 -0.069043942 37 49
4.468895 -0.3908096 -0.0069906651 44 57
4.3900533 -0.51452643 -0.42908812 41 15
4.4785223 -0.39164343 0.055266183 80 65
4.3855925 -0.51478219 -0.36700034 39 19
4.4117665 -0.37345141 -0.50035882 40 11
4.3722181 -0.63167125 -0.1752138 29 35
4.4456787 -0.37863752 -0.19246204 40 33
4.4529071 -0.37924701 -0.1307967 58 41
4.3790798 -0.52487153 -0.30511928 38 23
4.306447 -0.77539688 -0.47066039 40 12
4.3877516 -0.52668244 -0.24429199 44 27
4.3025646 -0.77547371 -0.4090856 44 16
4.3955822 -0.52839583 -0.18327771 35 34
4.3027287 -0.77627873 -0.34810916 43 20
4.4076233 -0.52983588 -0.1222269 46 42
4.4521079 -0.4042356 -0.068888612 40 49
4.4675035 -0.40640658 -0.0069906651 44 57
4.3832908 -0.52925396 -0.42860109 44 15
4.3837686 -0.53008759 -0.36700034 44 19
4.4104362 -0.38884911 -0.50035882 45 11
4.4393539 -0.39371639 -0.19224481 40 33
4.4465771 -0.39435089 -0.13064924 57 41
4.3772202 -0.54015428 -0.30511928 34 23
4.3086033 -0.79132193 -0.47119951 45 12
4.3858867 -0.54199535 -0.24429199 38 27
4.2949352 -0.78958827 -0.40861592 44 16
4.3937111 -0.54373604 -0.18327771 19 34
4.2950916 -0.79039186 -0.347709 43 20
4.3958263 -0.54399651 -0.12194944 42 42
4.4506698 -0.41977391 -0.068888612 27 49
4.4610796 -0.42153239 -0.0069828103 36 57
4.3814163 -0.54455131 -0.42860109 39 15
4.3769469 -0.54477417 -0.36658281 37 19
4.3991566 -0.40334323 -0.49922678 39 11
4.4280038 -0.40830135 -0.19181037 40 33
4.440196 -0.40941525 -0.13050178 45 41
4.3753085 -0.55543029 -0.30511928 35 23
4.379015 -0.55667508 -0.24401376 24 27
4.2872601 -0.80365896 -0.40814623 42 16
4.3868308 -0.55844188 -0.1830692 19 34
4.2923059 -0.80537981 -0.347709 42 20
4.3988595 -0.55996567 -0.12208818 35 42
4.4392247 -0.43434173 -0.068733282 22 49
4.4546046 -0.43661839 -0.006974956 31 57
4.3745522 -0.55921394 -0.42811403 35 15
4.3750186 -0.5600493 -0.36658281 38 19
4.3977213 -0.41869667 -0.49922678 37 11
4.4265513 -0.42375547 -0.19181037 21 33
4.4387398 -0.42491192 -0.13050178 38 41
4.3683972 -0.57005721 -0.30477139 25 23
4.3720956 -0.57131356 -0.24373554 20 27
4.2844286 -0.81861937 -0.40814623 48 16
4.3848548 -0.57375139 -0.1830692 22 34
4.2845736 -0.81942225 -0.34730887 39 20
4.3869653 -0.57402617 -0.1218107 95 42
4.4376817 -0.44983488 -0.068733282 23 49
4.4530535 -0.45216519 -0.006974956 27 57
4.3676391 -0.57383525 -0.42762697 37 15
4.3730369 -0.5753175 -0.36658281 34 19
4.3912897 -0.43356115 -0.49866074 40 11
4.4250455 -0.43920442 -0.19181037 20 33
4.4322567 -0.43991405 -0.13035432 37 41
4.3614359 -0.58464259 -0.30442348 24 23
4.3700743 -0.58657157 -0.24373554 25 27
4.2717729 -0.83166856 -0.40720689 43 16
4.3828254 -0.58905381 -0.1830692 23 34
4.4360843 -0.46532252 -0.068733282 26 49
4.446475 -0.46718818 -0.0069671012 43 57
4.3656096 -0.58907771 -0.42762697 27 15
4.3660641 -0.58991468 -0.36616528 22 19
4.3946915 -0.44938812 -0.49922678 26 11
4.4234853 -0.45464802 -0.19181037 25 33
4.4257216 -0.45487595 -0.13020685 43 41
4.3544278 -0.59918636 -0.30407554 38 23
4.3630543 -0.60114396 -0.24345729 34 27
4.2688437 -0.84657478 -0.40720689 39 16
4.375793 -0.6036694 -0.18286069 35 34
4.4344335 -0.48080453 -0.068733282 31 49
4.3635263 -0.60431296 -0.42762697 38 15
4.3639784 -0.60515147 -0.36616528 29 19
4.3881555 -0.46420729 -0.49866074 27 11
4.4169035 -0.46956223 -0.19159314 28 33
4.4241066 -0.47032186 -0.13020685 47 41
4.3572483 -0.61507666 -0.30442348 39 23
4.360929 -0.61637014 -0.24345729 42 27
4.3736591 -0.61894011 -0.18286069 37 34
4.4327278 -0.49628064 -0.068733282 37 49
4.356463 -0.61884397 -0.42713991 34 15
4.3569059 -0.61968237 -0.36574778 33 19
4.3914471 -0.48005763 -0.49922678 30 11
4.4152374 -0.48497728 -0.19159314 38 33
4.4174695 -0.48522055 -0.13005939 53 41
4.3501382 -0.6295712 -0.30407554 42 23
4.3538094 -0.63087595 -0.24317905 48 27
4.366528 -0.63348907 -0.18265219 31 34
4.4260025 -0.51118135 -0.068655625 46 49
4.3493524 -0.63333309 -0.42665291 38 15
4.3497858 -0.63417113 -0.36533025 38 19
4.3798709 -0.49427795 -0.49809477 34 11
4.4135175 -0.50038636 -0.19159314 42 33
4.4157491 -0.50063741 -0.13005939 57 41
4.3429794 -0.64402348 -0.30372763 40 23
4.346642 -0.64533961 -0.2429008 45 27
4.3642902 -0.64872718 -0.18265219 55 34
4.4291549 -0.52721459 -0.068733282 63 49
4.347115 -0.64851129 -0.42665291 43 15
4.3426166 -0.6486178 -0.36491272 42 19
4.378119 -0.50956351 -0.49809477 38 11
4.4018202 -0.51463759 -0.1911587 41 33
4.4090099 -0.51547205 -0.12991193 56 41
4.3357735 -0.65843362 -0.30337974 32 23
4.3443627 -0.66050833 -0.2429008 44 27
4.3399053 -0.66293317 -0.42616585 42 15
4.3403263 -0.6637724 -0.36491272 43 19
4.3763137 -0.52484292 -0.49809477 43 11
4.3950367 -0.52940649 -0.19094147 42 33
4.4071841 -0.53085923 -0.12991193 48 41
4.3334489 -0.67356426 -0.30337974 36 23
4.3272309 -0.67337513 -0.2420661 97 27
4.3424816 -0.67884386 -0.42665291 34 15
4.3379827 -0.6789189 -0.36491272 35 19
4.374455 -0.54011589 -0.49809477 37 11
4.3882041 -0.54413432 -0.19072424 39 33
4.4003439 -0.54562914 -0.12976448 40 41
4.3261447 -0.68790638 -0.30303183 34 23
4.3347158 -0.69003958 -0.24262258 96 27
4.3302569 -0.69243228 -0.42567879 35 15
4.3306661 -0.69327253 -0.36449519 38 19
4.3676138 -0.55476058 -0.49752873 37 11
4.3862782 -0.55944866 -0.19072424 22 33
4.3984122 -0.56098586 -0.12976448 34 41
4.3237171 -0.70300329 -0.30303183 21 23
4.3174968 -0.70276922 -0.24178785 95 27
4.3278131 -0.70754349 -0.42567879 26 15
4.3282194 -0.70838523 -0.36449519 22 19
4.3557968 -0.56872499 -0.49639669 26 11
4.3793449 -0.5741111 -0.19050701 22 33
4.3212366 -0.71809161 -0.30303183 23 23
4.3155003 -0.72101206 -0.42470473 24 15
4.3158913 -0.72185135 -0.36366019 22 19
4.3587103 -0.58458227 -0.4969627 22 11
4.3773146 -0.58939433 -0.19050701 24 33
4.3137856 -0.73233926 -0.30268389 23 23
4.3178625 -0.73690563 -0.42519173 38 15
4.3133454 -0.73691225 -0.36366019 29 19
4.3566432 -0.59979343 -0.4969627 24 11
4.3702817 -0.60399085 -0.1902898 30 33
4.311203 -0.74739271 -0.30268389 40 23
4.3152642 -0.75197333 -0.42519173 37 15
4.3107467 -0.75196409 -0.36366019 36 19
4.3496027 -0.61430675 -0.49639669 27 11
4.3681469 -0.61924231 -0.1902898 41 33
4.3036556 -0.76157099 -0.30233598 96 23
4.3077135 -0.76616353 -0.42470473 42 15
4.3031898 -0.76613659 -0.36324266 42 19
4.3425155 -0.62877828 -0.49583071 33 11
4.3610144 -0.63377202 -0.19007257 40 33
4.3001151 -0.78031003 -0.42421767 44 15
4.3004889 -0.78115284 -0.36324266 45 19
4.3402944 -0.6439327 -0.49583071 38 11
4.2924719 -0.79441279 -0.42373061 47 15
4.2928362 -0.79525506 -0.36282513 44 19
4.3331075 -0.65833718 -0.49526468 45 11
4.2945628 -0.81031114 -0.42421767 37 15
4.2900348 -0.8102349 -0.36282513 40 19
4.3307834 -0.67345852 -0.49526468 38 11
4.2819338 -0.82342362 -0.42324355 97 15
4.2822862 -0.82426614 -0.36240759 96 19
4.3284059 -0.68857163 -0.49526468 36 11
4.3210721 -0.70288306 -0.49469864 32 11
4.3185921 -0.71796215 -0.49469864 32 11
4.3111615 -0.73220479 -0.49413261 97 11
4.3085785 -0.74724913 -0.49413261 96 11
4.531857 0.10500841 -0.26639095 36 26
4.5272059 0.089094557 -0.26609528 54 26
4.5274892 0.073291115 -0.26609528 50 26
4.5227261 0.057427544 -0.26579961 49 26
4.5459881 0.056910098 -0.20402731 72 32
4.5187507 0.041605175 -0.32842389 49 22
4.5228992 0.041639931 -0.26579961 48 26
4.5411644 0.041000314 -0.20380136 49 32
4.5039086 0.02575843 -0.32732791 52 22
4.5230169 0.025851814 -0.26579961 51 26
4.5412798 0.02514844 -0.20380136 43 32
4.5139446 0.010050625 -0.32805854 45 22
4.5180888 0.010056412 -0.26550394 47 26
4.5363455 0.0092901625 -0.20357543 35 32
4.5039787 -0.0056857835 -0.32732791 40 22
4.5131049 -0.005704897 -0.2652083 43 26
4.5313549 -0.0065339925 -0.20334949 25 32
4.5437503 -0.0073551526 -0.14087638 64 40
4.5039792 -0.020621723 -0.3893345 36 18
4.4939585 -0.02135187 -0.32659727 25 22
4.5080667 -0.021430664 -0.26491264 29 26
4.5313048 -0.022351332 -0.20334949 20 32
4.5386996 -0.023186101 -0.14072022 47 40
4.498899 -0.03629908 -0.38890046 31 18
4.4938569 -0.037038583 -0.32659727 23 22
4.5079646 -0.037166625 -0.26491264 28 26
4.5262041 -0.038122196 -0.20312352 23 32
4.5335932 -0.038981874 -0.14056402 49 40
4.4937634 -0.05194122 -0.38846642 34 18
4.4937 -0.052724842 -0.32659727 28 22
4.5028157 -0.052839402 -0.26461697 31 26
4.5260439 -0.053921368 -0.20312352 32 32
4.5334296 -0.054806832 -0.14056402 45 40
4.4935551 -0.067627065 -0.38846642 37 18
4.4934888 -0.068410456 -0.32659727 29 22
4.502604 -0.068556838 -0.26461697 38 26
4.5258279 -0.069719881 -0.20312352 25 32
4.5332103 -0.070631124 -0.14056402 45 40
4.5447311 -0.070820153 -0.077923954 37 48
4.540678 0.060535345 -0.21166444 43 31
4.4774227 -0.082222879 -0.45044163 12 14
4.4833312 -0.083119094 -0.38759831 43 18
4.4932227 -0.08409524 -0.32659727 35 22
4.5023375 -0.084273443 -0.26461697 46 26
4.5255566 -0.085517541 -0.20312352 30 32
4.522943 -0.086255684 -0.14025165 45 40
4.5394588 -0.086584337 -0.077837572 41 48
4.5408616 0.044685055 -0.21166444 52 31
4.4721355 -0.097738646 -0.44993725 62 14
4.4830136 -0.098768331 -0.38759831 43 18
4.4929018 -0.09977901 -0.32659727 42 22
4.5020161 -0.099989027 -0.26461697 43 26
4.5202374 -0.10119822 -0.20289758 34 32
4.5226145 -0.10204317 -0.14025165 45 40
4.5391293 -0.10242947 -0.077837572 42 48
4.5359964 0.028805453 -0.21142979 48 31
4.4717669 -0.11334872 -0.44993725 45 14
4.4776626 -0.11428512 -0.38716429 47 18
4.4875412 -0.11532928 -0.32623193 47 22
4.5016398 -0.11570338 -0.26461697 43 26
4.5148635 -0.11684281 -0.20267166 41 32
4.5222306 -0.11782943 -0.14025165 43 40
4.5337467 -0.11813902 -0.077751182 37 48
4.5393705 -0.11908305 -0.014939751 45 56
4.5360694 0.012971697 -0.21142979 38 31
4.466372 -0.12880984 -0.44943282 47 14
4.4772367 -0.12991439 -0.38716429 38 18
4.4821272 -0.13084336 -0.32586664 41 22
4.4962192 -0.1312665 -0.2643213 43 26
4.5094357 -0.13245112 -0.2024457 28 32
4.5167966 -0.1334625 -0.14009549 38 40
4.5233121 -0.13366044 -0.077578396 14 48
4.5389271 -0.13492768 -0.014939751 43 56
4.5360866 -0.0028628493 -0.21142979 25 31
4.5435967 -0.0028720247 -0.14874376 54 39
4.4609227 -0.14423466 -0.44892839 50 14
4.471777 -0.14537603 -0.38673025 43 18
4.4816432 -0.1464881 -0.32586664 29 22
4.4907451 -0.14679322 -0.26402563 28 26
4.5039539 -0.14802296 -0.20221975 20 32
4.5163035 -0.14922825 -0.14009549 42 40
4.5228181 -0.14944892 -0.077578396 20 48
4.5334311 -0.15060052 -0.01492317 41 56
4.531054 -0.018673193 -0.21119513 20 31
4.5385618 -0.018708572 -0.14857888 51 39
4.460392 -0.1598053 -0.44892839 31 14
4.471242 -0.16098456 -0.38673025 38 18
4.471138 -0.16176212 -0.32513598 23 22
4.4852176 -0.16228333 -0.26372999 32 26
4.5034094 -0.16374379 -0.20221975 20 32
4.5157547 -0.16499218 -0.14009549 42 40
4.5222688 -0.16523558 -0.077578396 20 48
4.5328774 -0.16642423 -0.01492317 40 56
4.5259671 -0.034448437 -0.21096046 23 31
4.5384693 -0.034550991 -0.14857888 43 39
4.5314074 0.088616759 -0.28208721 55 25
4.4548364 -0.17517437 -0.44842398 23 14
4.4656758 -0.17639035 -0.38629618 23 18
4.4755282 -0.17757016 -0.32550129 25 22
4.4846239 -0.17793866 -0.26372999 27 26
4.4978194 -0.17925957 -0.20199381 17 32
4.5051646 -0.18034598 -0.13978311 38 40
4.5166698 -0.18081611 -0.077492014 20 48
4.5272732 -0.1820409 -0.014906588 32 56
4.5270433 -0.18203148 0.04785515 43 64
4.5258193 -0.050246805 -0.21096046 25 31
4.5333238 -0.050334565 -0.14841397 43 39
4.5267 0.072720274 -0.2817741 58 25
4.4541984 -0.19072358 -0.44842398 29 14
4.4600563 -0.19175927 -0.38586214 31 18
4.4698992 -0.19297235 -0.32513598 25 22
4.4839749 -0.19359183 -0.26372999 34 26
4.4971666 -0.19495879 -0.20199381 20 32
4.4995155 -0.1958494 -0.13962694 42 40
4.5110168 -0.1963596 -0.077405617 34 48
4.5266109 -0.19784293 -0.014906588 42 56
4.526381 -0.1978327 0.04785515 42 64
4.5206223 -0.065968707 -0.2107258 28 31
4.5331206 -0.066158503 -0.14841397 50 39
4.5396037 -0.075767107 -0.085698985 50 47
4.526926 0.056918699 -0.2817741 49 25
4.4485364 -0.20603615 -0.44791961 33 14
4.5354161 0.05702243 -0.21928352 53 30
4.4643354 -0.2075621 -0.38629618 38 18
4.4691987 -0.20857403 -0.32513598 29 22
4.4782863 -0.20900577 -0.26343432 44 26
4.4964585 -0.21065564 -0.20199381 25 32
4.4988041 -0.21155444 -0.13962694 43 40
4.5103035 -0.21210478 -0.077405617 25 48
4.5208979 -0.21340266 -0.014890007 42 56
4.5206685 -0.21339163 0.047801916 45 64
4.5253582 -0.081841506 -0.21096046 29 31
4.5278654 -0.081888333 -0.14824906 46 39
4.5393119 -0.091612816 -0.085698985 41 47
4.5221071 0.041072883 -0.281461 48 25
4.4477901 -0.22156319 -0.44791961 37 14
4.5355878 0.041190527 -0.21928352 46 30
4.4586091 -0.22289139 -0.38586214 39 18
4.4634628 -0.22391914 -0.32477066 33 22
4.4775295 -0.22463663 -0.26343432 42 26
4.4907074 -0.22609459 -0.20176786 29 32
4.4930468 -0.22700058 -0.13947074 42 40
4.5045428 -0.22759098 -0.077319227 30 48
4.5151324 -0.22892492 -0.014873426 42 56
4.5198956 -0.2291704 0.047801916 41 64
4.520052 -0.097526744 -0.2107258 43 31
4.5225558 -0.097582258 -0.14808415 45 39
4.5339665 -0.10733615 -0.085603863 42 47
4.4979105 0.025945287 -0.34253955 52 21
4.5172324 0.025261404 -0.28114793 48 25
4.4469895 -0.2370875 -0.44791961 50 14
4.5307097 0.025331972 -0.21904014 42 30
4.4578042 -0.23845349 -0.38586214 47 18
4.4626546 -0.23949817 -0.32477066 39 22
4.4767184 -0.24026476 -0.26343432 43 26
4.4849033 -0.241496 -0.20154193 41 32
4.4922276 -0.24268284 -0.13947074 43 40
4.5037212 -0.24331337 -0.077319227 37 48
4.5093136 -0.24440952 -0.014856844 42 56
4.5090842 -0.24439691 0.047695454 40 64
4.5146914 -0.11317596 -0.21049115 39 31
4.4929252 -0.24508066 0.10986872 22 70
4.5221877 -0.11336832 -0.14808415 45 39
4.5335641 -0.12316199 -0.085603863 40 47
4.4979734 0.010244492 -0.34253955 43 21
4.5443163 -0.12346046 -0.022827694 49 55
4.517293 0.0094931656 -0.28114793 42 25
4.4411688 -0.25232261 -0.44741517 44 14
4.5307703 0.0095166899 -0.21904014 40 30
4.451972 -0.25372508 -0.38542813 46 18
4.4568129 -0.25478551 -0.32440534 42 22
4.4708695 -0.2556009 -0.26313865 43 26
4.4840331 -0.25714976 -0.20154193 33 32
4.4863639 -0.25807101 -0.13931458 43 40
4.5028439 -0.25903279 -0.077319227 35 48
4.5084324 -0.26014847 -0.014856844 41 56
4.5082035 -0.26013505 0.047695454 32 64
4.5092759 -0.12878893 -0.21025649 23 31
4.5070119 -0.26164392 0.11023783 40 70
4.5217643 -0.12915303 -0.14808415 45 39
4.5231133 -0.13867402 -0.085413627 20 47
4.4979815 -0.0054570548 -0.34253955 28 21
4.5388608 -0.13916616 -0.022802388 40 55
4.5172987 -0.0062758168 -0.28114793 48 25
4.4402609 -0.26782364 -0.44741517 42 14
4.5257816 -0.0062906221 -0.21879674 25 30
4.4460874 -0.26895887 -0.38499409 43 18
4.5383921 -0.0071047326 -0.15643707 50 38
4.4509192 -0.27003494 -0.32404003 44 22
4.4649682 -0.27089912 -0.26284298 32 26
4.4781227 -0.27249286 -0.20131598 20 32
4.4804478 -0.2734212 -0.13915838 42 40
4.4919329 -0.27413169 -0.077146441 20 48
4.5025072 -0.27557468 -0.014840263 39 56
4.5072684 -0.27587005 0.047695454 14 64
4.5038071 -0.14436547 -0.21002181 23 31
4.5010824 -0.27706346 0.11011479 38 70
4.5162921 -0.14477308 -0.14791925 39 39
4.5226016 -0.15446179 -0.085413627 17 47
4.49295 -0.021132676 -0.3421568 38 21
4.5333505 -0.15483527 -0.022777081 41 55
4.5072694 -0.021991836 -0.28052178 29 25
4.4392991 -0.28332144 -0.44741517 32 14
4.5257325 -0.022088509 -0.21879674 17 30
4.4451213 -0.284477 -0.38499409 41 18
4.5333428 -0.022919599 -0.15626344 48 38
4.4449735 -0.28524637 -0.32367468 17 22
4.4590149 -0.28615931 -0.26254734 26 26
4.4721599 -0.28779781 -0.20109004 20 32
4.4794664 -0.28905922 -0.13915838 42 40
4.4909487 -0.28980982 -0.077146441 17 48
4.4965281 -0.29096267 -0.014823682 21 56
4.5012889 -0.29127467 0.047642224 17 64
4.4982843 -0.1599054 -0.20978715 23 31
4.5050755 -0.29310215 0.11023783 17 70
4.5107646 -0.16035651 -0.14775436 41 39
4.4167209 -0.15772922 -0.52657962 43 10
4.5220351 -0.17024766 -0.085413627 20 47
4.4978342 -0.036858503 -0.34253955 25 21
4.5327821 -0.17065865 -0.022777081 33 55
4.5071654 -0.037725009 -0.28052178 29 25
4.43332 -0.29847738 -0.44691074 14 14
4.5326319 -0.17144515 0.040054776 70 63
4.5206337 -0.037842546 -0.21855336 23 30
4.4441013 -0.29999164 -0.38499409 28 18
4.5332351 -0.038743779 -0.15626344 45 38
4.448925 -0.30110139 -0.32404003 17 22
4.4530087 -0.3013812 -0.26225168 23 26
4.471128 -0.3034068 -0.20109004 20 32
4.4734435 -0.30435029 -0.1390022 41 40
4.4975629 -0.040781349 -0.40525588 47 17
4.4849224 -0.30514088 -0.077060059 20 48
4.4904971 -0.30631226 -0.014807099 25 56
4.4952569 -0.30664092 0.047588989 20 64
4.4976988 -0.17560636 -0.20978715 23 31
4.513998 -0.30951813 0.11048389 25 70
4.5101776 -0.17610103 -0.14775436 37 39
4.4211035 -0.17334299 -0.52717602 36 10
4.5114241 -0.18561456 -0.085223407 23 47
4.4976778 -0.052558649 -0.34253955 36 21
4.527163 -0.18627146 -0.022751771 33 55
4.5020165 -0.053396754 -0.28020868 37 25
4.432251 -0.31395072 -0.44691074 23 14
4.5270104 -0.18705656 0.04001027 48 63
4.515481 -0.053561263 -0.21831001 25 30
4.4330902 -0.31478855 -0.38412598 28 18
4.5280757 -0.054505564 -0.15608981 38 38
4.4378996 -0.31591266 -0.32330936 23 22
4.4469514 -0.31656468 -0.26195601 27 26
4.4650598 -0.31865236 -0.20086409 30 32
4.4673696 -0.31960288 -0.13884601 37 40
4.4874349 -0.056351904 -0.40435126 38 17
4.4788442 -0.32043344 -0.076973669 20 48
4.4894004 -0.32198516 -0.014807099 33 56
4.4941592 -0.32233045 0.047588989 28 64
4.4920683 -0.19108996 -0.20955248 23 31
4.5128899 -0.32527304 0.11048389 28 70
4.4995499 -0.19141267 -0.14742453 34 39
4.5447421 -0.060265467 -0.093663968 43 46
4.4303904 -0.18920407 -0.52836865 38 10
4.5348358 0.072567552 -0.22713655 53 29
4.5107484 -0.20136124 -0.085223407 32 47
4.4924822 -0.068180718 -0.3421568 28 21
4.5214901 -0.20184714 -0.022726463 41 55
4.5018024 -0.069111407 -0.28020868 34 25
4.431128 -0.32942027 -0.44691074 25 14
4.5263295 -0.20285763 0.04001027 46 63
4.5202594 -0.069401346 -0.21855336 25 30
4.4369316 -0.33063534 -0.38456005 34 18
4.5278578 -0.070311166 -0.15608981 49 38
4.4367695 -0.33140188 -0.32330936 20 22
4.4458189 -0.33208549 -0.26195601 37 26
4.4639201 -0.33423638 -0.20086409 17 32
4.4662266 -0.33519498 -0.13884601 42 40
4.4921894 -0.072097324 -0.40480357 60 17
4.4776983 -0.33606556 -0.076973669 25 48
4.4832635 -0.33727491 -0.014790519 42 56
4.4880204 -0.33763677 0.047535758 40 64
4.491374 -0.20676903 -0.20955248 32 31
4.5216947 -0.34178573 0.11072996 38 70
4.4988542 -0.20711786 -0.14742453 50 39
4.5445042 -0.076129206 -0.093663968 38 46
4.4297032 -0.20466787 -0.52836865 56 10
4.5350618 0.056737576 -0.22713655 53 29
4.5100179 -0.21710546 -0.085223407 43 47
4.4922171 -0.083861999 -0.3421568 45 21
4.5157642 -0.2173855 -0.022701157 44 55
4.501534 -0.084825203 -0.28020868 40 25
4.4299512 -0.3448858 -0.44691074 31 14
4.5206003 -0.218412 0.039965764 48 63
4.514997 -0.085083701 -0.21831001 29 30
4.43575 -0.3461211 -0.38456005 36 18
4.5225883 -0.086019099 -0.15591617 52 38
4.435586 -0.34688711 -0.32330936 41 22
4.4396567 -0.34720892 -0.26166034 43 26
4.4577475 -0.34942183 -0.20063816 28 32
4.4600477 -0.35038742 -0.13868985 42 40
4.4819527 -0.087579399 -0.40389895 65 17
4.4715137 -0.35129789 -0.076887272 31 48
4.482059 -0.35292235 -0.014790519 42 56
4.4818311 -0.35290423 0.047482528 41 64
4.4906249 -0.22244559 -0.20955248 32 31
4.4981041 -0.22282052 -0.14742453 52 39
4.5392127 -0.091889083 -0.093560137 41 46
4.4240036 -0.21987973 -0.52777231 53 10
4.5302382 0.04086246 -0.22688445 42 29
4.5042405 -0.23258628 -0.085128285 38 47
4.4918971 -0.099542245 -0.3421568 49 21
4.5149779 -0.23314713 -0.022701157 50 55
4.5012102 -0.10053797 -0.28020868 44 25
4.4237628 -0.35993952 -0.44640633 37 14
4.5098243 -0.23366718 0.039876755 40 63
4.5096793 -0.10073016 -0.21806662 40 30
4.4295506 -0.36119366 -0.38412598 44 18
4.5222602 -0.10180536 -0.15591617 54 38
4.429379 -0.36195779 -0.32294407 45 22
4.4384179 -0.3627041 -0.26166034 43 26
4.4515228 -0.36456832 -0.20041221 42 32
4.4656243 -0.10206982 -0.46490163 62 13
4.4587975 -0.36595374 -0.13868985 42 40
4.4816198 -0.1032238 -0.40389895 49 17
4.4752431 -0.36731735 -0.076973669 38 48
4.4758167 -0.36815146 -0.014773938 41 56
4.4606419 -0.36689052 0.047269605 42 64
4.489821 -0.23811944 -0.20955248 43 31
4.4923086 -0.23825285 -0.14725962 48 39
4.5338664 -0.10761293 -0.093456291 42 46
4.443038 -0.236388 -0.53015774 44 10
4.5347328 -0.1076338 -0.030630924 39 54
4.5303535 0.025048729 -0.22688445 48 29
4.4984097 -0.2480294 -0.085033171 41 47
4.4865384 -0.11509166 -0.34177408 39 21
4.5091448 -0.24862771 -0.022675849 43 55
4.4958429 -0.11611888 -0.2798956 43 25
4.4175229 -0.37495422 -0.44590193 49 14
4.5089812 -0.24940801 0.039876755 39 63
4.5092998 -0.11647126 -0.21806662 42 30
4.4183378 -0.37580082 -0.38325793 43 18
4.5168834 -0.11745871 -0.15574256 52 38
4.4280882 -0.37741697 -0.32294407 38 22
4.4371247 -0.37819484 -0.26166034 43 26
4.450223 -0.38010481 -0.20041221 37 32
4.4602695 -0.11752435 -0.46437982 55 13
4.4525137 -0.38108525 -0.13853365 43 40
4.4762545 -0.11873312 -0.4034467 52 17
4.4639721 -0.38207561 -0.076800883 41 48
4.4695234 -0.38334131 -0.014757356 41 56
4.4742775 -0.38375303 0.047429297 41 64
4.4789901 -0.25322065 -0.20908317 41 31
4.4914498 -0.25393251 -0.14725962 48 39
4.5334635 -0.12343843 -0.093456291 39 46
4.4421854 -0.25189564 -0.53015774 42 10
4.5343294 -0.12346232 -0.030630924 42 54
4.5304132 0.009234692 -0.22688445 44 29
4.5381684 0.0092495829 -0.16350904 51 37
4.4975171 -0.26373026 -0.085033171 35 47
4.4861097 -0.13075189 -0.34177408 47 21
4.5082498 -0.26436603 -0.022675849 39 55
4.4954104 -0.13181159 -0.2798956 37 25
4.4161873 -0.39037195 -0.44590193 42 14
4.5080833 -0.26514575 0.039876755 35 63
4.5038743 -0.13206279 -0.21782324 32 30
4.4219604 -0.3916651 -0.38369197 45 18
4.5114508 -0.13307573 -0.15556893 40 38
4.4217768 -0.39242658 -0.32257873 38 22
4.4308066 -0.39323565 -0.2613647 43 26
4.4389186 -0.39474338 -0.19996031 17 32
4.4648027 -0.13324301 -0.46490163 40 13
4.4461784 -0.39617735 -0.13837747 43 40
4.4758129 -0.13435745 -0.4034467 41 17
4.4576321 -0.39720759 -0.076714501 35 48
4.4631782 -0.39849168 -0.014740774 40 56
4.4529924 -0.39757371 0.047216371 40 64
4.4780788 -0.26885366 -0.20908317 20 31
4.485548 -0.2693066 -0.14709473 45 39
4.5280085 -0.13910715 -0.093352452 17 46
4.4363246 -0.26709893 -0.5295614 42 10
4.528873 -0.13913402 -0.030596888 38 54
4.525424 -0.0065722438 -0.22663236 25 29
4.5381727 -0.0065922695 -0.16350904 49 37
4.4865899 -0.27880183 -0.084842943 17 47
4.4806437 -0.14624614 -0.34139135 40 21
4.4973187 -0.27947494 -0.022625232 37 55
4.4949226 -0.14750269 -0.2798956 50 25
4.4098444 -0.40532547 -0.44539753 38 14
4.50214 -0.28056633 0.039832249 17 63
4.498394 -0.14761785 -0.21757986 17 30
4.415606 -0.40663722 -0.38325793 30 18
4.5109582 -0.14882283 -0.15556893 35 38
4.4203801 -0.40785909 -0.32257873 17 22
4.4294071 -0.40869966 -0.2613647 29 26
4.4375143 -0.41023567 -0.19996031 17 32
4.454371 -0.14849232 -0.46385804 47 13
4.4447689 -0.411695 -0.13837747 41 40
4.4703403 -0.14981155 -0.40299439 40 17
4.451241 -0.41229996 -0.076628104 20 48
4.4518037 -0.4131363 -0.014707613 37 56
4.4721289 -0.28416377 -0.20884851 23 31
4.4795933 -0.28464255 -0.14692983 43 39
4.5224991 -0.15473928 -0.093248606 14 46
4.4353652 -0.28258297 -0.5295614 41 10
4.5283599 -0.15494187 -0.030596888 34 54
4.5253735 -0.022368884 -0.22663236 17 29
4.5331254 -0.022408118 -0.16332757 38 37
4.4905782 -0.29479173 -0.084938049 20 47
4.4801059 -0.16188562 -0.34139135 35 21
4.496316 -0.29517183 -0.022625232 20 55
4.4893937 -0.16300914 -0.2795825 27 25
4.403451 -0.42023942 -0.44489309 23 14
4.4961443 -0.29594862 0.039787743 20 63
4.4928613 -0.16313627 -0.21733648 20 30
4.4141598 -0.42204806 -0.38325793 29 18
4.5054178 -0.16438413 -0.1553953 42 38
4.4189296 -0.42328659 -0.32257873 20 22
4.4180169 -0.42319837 -0.26077336 21 26
4.4310837 -0.42524171 -0.19973437 17 32
4.4587941 -0.16422488 -0.46437982 39 13
4.4333568 -0.42624277 -0.13806511 40 40
4.46979 -0.16541503 -0.40299439 32 17
4.444798 -0.42735252 -0.076541714 20 48
4.4503341 -0.42867348 -0.014707613 20 56
4.466126 -0.29943556 -0.20861384 23 31
4.4785724 -0.3002775 -0.14692983 34 39
4.5169363 -0.17033465 -0.093144774 17 46
4.4293985 -0.29772764 -0.52896506 25 10
4.5277915 -0.17074786 -0.030596888 20 54
4.5377736 -0.17112784 0.032236829 43 62
4.5202746 -0.038122538 -0.22638026 30 29
4.53302 -0.038231544 -0.16332757 40 37
4.4845343 -0.31011713 -0.084842943 23 47
4.4745312 -0.17732391 -0.34100863 25 21
4.4902701 -0.31051719 -0.022599922 28 55
4.4838114 -0.17847881 -0.27926946 42 25
4.401957 -0.43560779 -0.44489309 23 14
4.4900961 -0.31129253 0.039743237 27 63
4.4922638 -0.1788183 -0.21733648 20 30
4.4077029 -0.43695822 -0.38282388 27 18
4.4948301 -0.17970714 -0.15504804 31 38
4.4124632 -0.43821192 -0.32221341 20 22
4.5497408 -0.048698545 -0.10164613 49 45
4.4214792 -0.43911505 -0.26106903 26 26
4.4295721 -0.44070649 -0.19973437 17 32
4.4532251 -0.17958584 -0.46385804 38 13
4.4268694 -0.44121563 -0.13790894 30 40
4.4691854 -0.1810165 -0.40299439 39 17
4.4432797 -0.44286513 -0.076541714 20 48
4.4488111 -0.44420543 -0.014707613 23 56
4.465054 -0.31502342 -0.20861384 23 31
4.4675279 -0.31519943 -0.14660001 36 39
4.5113196 -0.18589307 -0.093040928 20 46
4.4283328 -0.3131873 -0.52896506 29 10
4.5221729 -0.18634416 -0.030562853 34 54
4.5271573 -0.18655132 0.03216527 38 62
4.5201139 -0.053901009 -0.22638026 23 29
4.5278625 -0.053994328 -0.16314609 37 37
4.5206633 0.076794267 -0.29711899 12 24
4.4784389 -0.32540396 -0.084747829 28 47
4.4738851 -0.19294183 -0.34100863 37 21
4.4841723 -0.32582402 -0.022574617 35 55
4.483161 -0.19412915 -0.27926946 32 25
4.4004097 -0.4509708 -0.44489309 25 14
4.4889822 -0.32696399 0.039743237 31 63
4.4866233 -0.19428033 -0.21709311 23 30
4.4061513 -0.45234132 -0.38282388 31 18
4.4941759 -0.19539593 -0.15504804 39 38
4.4059467 -0.45309728 -0.32184806 23 22
4.5445452 -0.064508267 -0.10153356 55 45
4.4149547 -0.45403138 -0.26077336 33 26
4.4472413 -0.19489388 -0.55388051 58 9
4.4280071 -0.45616591 -0.19973437 20 32
4.4525714 -0.19512939 -0.46385804 25 13
4.425302 -0.45666558 -0.13790894 38 40
4.4635515 -0.1963951 -0.40254208 32 17
4.4417067 -0.45837235 -0.076541714 29 48
4.4323144 -0.45817706 -0.014657869 28 56
4.4589472 -0.3302356 -0.20837919 25 31
4.4664001 -0.33079207 -0.14660001 46 39
4.5106435 -0.20163938 -0.093040928 28 46
4.4272122 -0.32864317 -0.52896506 22 10
4.5165 -0.20190328 -0.030528821 39 54
4.5264783 -0.2023529 0.03216527 42 62
4.5149055 -0.069601268 -0.22612818 25 29
4.5276465 -0.069799192 -0.16314609 50 37
4.5209036 0.061013732 -0.29711899 52 24
4.5346212 0.059617329 -0.23498893 51 28
4.4772754 -0.34103462 -0.084747829 31 47
4.468205 -0.20832348 -0.34062591 40 21
4.4830079 -0.34147468 -0.022574617 40 55
4.4774718 -0.20954204 -0.27895635 36 25
4.398809 -0.46632838 -0.44489309 28 14
4.4878135 -0.34263149 0.039743237 38 63
4.485918 -0.20994036 -0.21709311 28 30
4.3995924 -0.46718866 -0.38238981 41 18
4.4934664 -0.21108235 -0.15504804 47 38
4.3993802 -0.46794257 -0.32148278 28 22
4.5392952 -0.080282323 -0.101421 40 45
4.4083805 -0.46890759 -0.26047769 42 26
4.4514894 -0.21065275 -0.55450284 21 9
4.4214211 -0.47108632 -0.19950843 23 32
4.4518633 -0.21067058 -0.46385804 28 13
4.4236813 -0.47211 -0.13790894 42 40
4.4578648 -0.21173656 -0.40208977 34 17
4.4351091 -0.47333935 -0.076455325 30 48
4.4356589 -0.47418153 -0.014674449 38 56
4.4577665 -0.34579822 -0.20837919 30 31
4.4602365 -0.34599131 -0.14643511 47 39
4.5049191 -0.21714079 -0.09293709 34 46
4.4161391 -0.34331942 -0.52777231 26 10
4.5157676 -0.21766759 -0.030528821 42 54
4.52075 -0.21790954 0.032129489 43 62
4.5196271 -0.085455798 -0.22638026 31 29
4.504848 -0.21792546 0.094498187 79 69
4.5273747 -0.085603207 -0.16314609 54 37
4.5210891 0.045232464 -0.29711899 40 24
4.5397944 0.043836981 -0.23524971 51 28
4.4710746 -0.35626107 -0.084652707 38 47
4.4674506 -0.22391915 -0.34062591 44 21
4.4768047 -0.35672107 -0.022549309 45 55
4.4767127 -0.22517006 -0.27895635 41 25
4.39221 -0.48113441 -0.44438866 30 14
4.4766235 -0.35749286 0.039654229 46 63
4.4801698 -0.22534518 -0.21684973 31 30
4.3979349 -0.48254326 -0.38238981 46 18
4.4927025 -0.22676618 -0.15504804 49 38
