# .PCD v0.7 - Point Cloud Data file format
VERSION 0.7
FIELDS x y z intensity ring
SIZE 4 4 4 4 2
TYPE F F F F U
COUNT 1 1 1 1 1
WIDTH 1262
HEIGHT 1
VIEWPOINT 0 0 0 1 0 0 0
POINTS 1262
DATA ascii
3.8845875 1.301455 -0.18369237 45 32
3.7247736 1.4968181 -0.41742009 23 13
3.9010935 1.306211 -0.12744471 45 40
3.7393267 1.5019016 -0.36274016 49 17
3.9308567 1.3161466 -0.071012743 45 48
3.9458759 1.3203946 -0.013679572 41 56
3.9599032 1.3250746 0.044075709 46 64
3.8500957 1.4140753 -0.19101425 46 31
3.8663042 1.4200163 -0.1347269 39 39
3.7666769 1.3827529 -0.47767872 49 10
3.89415 1.4209762 -0.078184865 46 47
3.7661161 1.501213 -0.30847692 45 21
3.7885623 1.5093838 -0.25359666 28 25
3.8160105 1.2659723 -0.4040356 49 14
3.8100464 1.5179334 -0.19810961 50 30
3.8307352 1.2701001 -0.34853467 46 18
3.8493633 1.2755119 -0.29444897 44 22
3.8718526 1.2829407 -0.23948574 42 26
3.889107 1.2878873 -0.18369237 45 32
3.7345972 1.4856433 -0.41794187 45 13
3.900883 1.2910199 -0.12728854 39 40
3.7445467 1.4888399 -0.36274016 38 17
3.935427 1.3024175 -0.071012743 45 48
3.9504607 1.3066128 -0.013679572 31 56
3.9645045 1.3112439 0.044075709 43 64
3.8550086 1.4006273 -0.19101425 45 31
3.8665392 1.4048082 -0.134562 17 39
3.7574787 1.364522 -0.47588962 49 10
3.9037893 1.4090683 -0.078279972 46 47
3.766696 1.4862298 -0.30809423 45 21
3.7891653 1.4943211 -0.25328362 36 25
3.8156776 1.2510986 -0.40353116 41 14
3.8199689 1.5064549 -0.19835301 40 30
3.8351452 1.2567208 -0.34853467 45 18
3.8537924 1.2620673 -0.29444897 43 22
3.8763075 1.2694176 -0.23948574 39 26
3.8935785 1.2743039 -0.18369237 45 32
3.7351325 1.470778 -0.41742009 28 13
3.9006143 1.2758461 -0.12713234 17 40
3.7497211 1.4757599 -0.36274016 28 17
3.9351959 1.2871224 -0.070926353 43 48
3.9502435 1.2912661 -0.01366299 28 56
3.9690576 1.2973973 0.044075709 26 64
3.8598742 1.3871622 -0.19101425 39 31
3.8667157 1.3896158 -0.13439709 20 39
3.762219 1.3513978 -0.47588962 45 10
3.899266 1.3920776 -0.078089751 44 47
3.776505 1.474884 -0.30847692 25 21
3.923466 1.4006996 -0.020904299 9 55
3.794358 1.4810853 -0.25328362 17 25
3.8152876 1.2362428 -0.40302673 45 14
3.8158982 1.4894836 -0.19786626 46 30
3.8347683 1.2417957 -0.3481006 42 18
3.8534288 1.2470765 -0.29408368 42 22
3.8759649 1.2543467 -0.2391901 17 26
3.8980031 1.260705 -0.18369237 43 32
3.7448778 1.4595349 -0.41794187 17 13
3.9098008 1.2637553 -0.12728854 20 40
3.7548492 1.462662 -0.36274016 20 17
3.9444234 1.2749114 -0.071012743 31 48
3.9547267 1.2774692 -0.01366299 18 56
3.9688025 1.282002 0.044022478 25 64
3.8646927 1.3736805 -0.19101425 36 31
3.8479934 1.3677571 -0.13357256 23 39
3.7669132 1.3382568 -0.47588962 41 10
3.9088166 1.3801194 -0.078184865 36 47
3.7769799 1.4598973 -0.30809423 28 21
3.9283316 1.3869956 -0.020904299 42 55
3.7995052 1.4678316 -0.25328362 33 25
3.8195801 1.2229176 -0.40302673 34 14
3.8257332 1.4779521 -0.19810961 45 30
3.8390796 1.2284023 -0.3481006 37 18
3.8468513 1.4853295 -0.14202608 36 38
3.8577585 1.2336179 -0.29408368 41 22
3.8755639 1.2392935 -0.23889443 17 26
3.9023798 1.2470907 -0.18369237 42 32
3.7453091 1.4446663 -0.41742009 23 13
3.9141884 1.2500999 -0.12728854 20 40
3.759932 1.4495462 -0.36274016 23 17
3.9488497 1.2611351 -0.071012743 27 48
3.959162 1.2636569 -0.01366299 21 56
3.9684896 1.2666247 0.043969247 17 64
3.8694642 1.3601817 -0.19101425 32 31
3.7395711 1.3146173 -0.12961486 23 39
3.7715614 1.3250998 -0.47588962 31 10
3.9136102 1.3664668 -0.078184865 35 47
3.7867095 1.4484833 -0.30847692 30 21
3.9284272 1.3716296 -0.020878989 48 55
3.8092673 1.45634 -0.25359666 33 25
3.8238254 1.2095772 -0.40302673 17 14
3.8308687 1.4645888 -0.19810961 45 30
3.8433442 1.2149938 -0.3481006 20 18
3.8426762 1.4683291 -0.14167884 49 38
3.8620412 1.2201442 -0.29408368 32 22
3.8798664 1.2257576 -0.23889443 20 26
3.9067094 1.2334614 -0.18369237 35 32
3.7503295 1.4315839 -0.41742009 28 13
3.9185283 1.2364292 -0.12728854 17 40
3.7649691 1.4364127 -0.36274016 29 17
3.9484587 1.2458432 -0.070926353 28 48
3.9635487 1.2498291 -0.01366299 23 56
3.9919653 1.2587615 0.044182174 23 64
3.8789074 1.3483031 -0.19124891 43 31
3.8857768 1.3506858 -0.134562 20 39
3.7714736 1.3103004 -0.47529328 30 10
3.9183562 1.3527974 -0.078184865 46 47
3.7964063 1.4370196 -0.30885968 34 21
3.9331911 1.3579084 -0.020878989 49 55
3.80966 1.4412704 -0.25328362 38 25
3.8327737 1.1977015 -0.40353116 20 14
3.9427781 1.3604413 0.036805887 9 63
3.835958 1.4512076 -0.19810961 46 30
3.852318 1.2030512 -0.34853467 20 18
3.8524525 1.456672 -0.14185247 53 38
3.8662767 1.2066557 -0.29408368 23 22
3.8841214 1.212207 -0.23889443 20 26
3.9109912 1.2198168 -0.18369237 33 32
3.7599564 1.4202392 -0.41794187 31 13
3.9228206 1.2227434 -0.12728854 32 40
3.7699602 1.4232618 -0.36274016 32 17
3.9575579 1.2335364 -0.071012743 34 48
3.9678872 1.2359861 -0.01366299 31 56
3.9724607 1.2374061 0.043916017 25 64
3.8788657 1.3331349 -0.19101425 50 31
3.8857405 1.3354927 -0.13439709 28 39
3.7901127 1.3019565 -0.47708234 33 10
3.9183226 1.3374996 -0.078089751 50 47
3.7967293 1.4220121 -0.30847692 41 21
3.9379075 1.3441707 -0.020878989 53 55
3.8146677 1.4279635 -0.25328362 42 25
3.8369312 1.1843153 -0.40353116 25 14
3.9522362 1.3482816 0.036850393 31 63
3.836323 1.4360601 -0.19786626 46 30
3.8564939 1.1895967 -0.34853467 25 18
3.8575137 1.4432155 -0.14185247 49 38
3.8752315 1.1946172 -0.29444897 31 22
3.8931005 1.2001076 -0.2391901 20 26
3.7329602 1.3951867 -0.49538079 50 9
3.9152253 1.2061576 -0.18369237 43 32
3.7602322 1.4053669 -0.41742009 40 13
3.9270644 1.2090427 -0.12728854 23 40
3.7795708 1.4118341 -0.36319247 42 17
3.9570599 1.2182475 -0.070926353 43 48
3.9721775 1.2221282 -0.01366299 36 56
3.9958756 1.229396 0.044128943 36 64
3.8834956 1.3195869 -0.19101425 47 31
3.8951111 1.3235253 -0.134562 30 39
3.8841815 1.4477745 -0.08535675 17 46
3.7899327 1.2871253 -0.47648597 40 10
3.9277048 1.3254093 -0.078184865 52 47
3.7969949 1.4070201 -0.30809423 44 21
3.9425752 1.3304167 -0.020878989 44 55
3.8196287 1.414639 -0.25328362 37 25
3.8458016 1.1723608 -0.4040356 29 14
3.9521797 1.3328826 0.036805887 48 63
3.8413122 1.42266 -0.19786626 47 30
3.8653893 1.1775751 -0.34896871 31 18
3.8578415 1.4280088 -0.14167884 43 38
3.8746064 1.1796349 -0.29408368 42 22
3.8972659 1.1865108 -0.2391901 28 26
3.719192 1.3752725 -0.49289143 51 9
3.9194117 1.1924835 -0.18369237 43 32
3.765115 1.3922327 -0.41742009 52 13
3.9312611 1.1953274 -0.12728854 28 40
3.7798042 1.396908 -0.36274016 48 17
3.9612882 1.2044275 -0.070926353 43 48
3.9764194 1.2082551 -0.01366299 41 56
3.8786073 1.3028485 -0.19054493 52 31
3.8997076 1.3099208 -0.134562 35 39
3.8798292 1.4307517 -0.085149065 42 46
3.7944024 1.2738882 -0.47648597 42 10
3.8045607 1.5307735 -0.20520437 51 29
3.9275644 1.3101122 -0.078089751 54 47
3.8065643 1.3954715 -0.30847692 42 21
3.9424512 1.3150673 -0.020853681 43 55
3.8292296 1.4030123 -0.25359666 42 25
3.8498704 1.1589293 -0.4040356 33 14
3.9568081 1.3190788 0.036805887 38 63
3.8462548 1.4092426 -0.19786626 44 30
3.8647048 1.1626445 -0.34853467 37 18
3.8628023 1.4145336 -0.14167884 32 38
3.8787003 1.1661028 -0.29408368 48 22
3.9013836 1.1728995 -0.2391901 43 26
3.7379496 1.3673893 -0.49475846 53 9
3.9187655 1.1773621 -0.18346642 45 32
3.7699521 1.3790815 -0.41742009 49 13
3.9354095 1.1815975 -0.12728854 30 40
3.7846577 1.3837056 -0.36274016 48 17
3.9606791 1.1891595 -0.070839964 45 48
3.9662416 1.1900697 -0.013613247 42 56
3.8831313 1.2893018 -0.19054493 50 31
3.8995125 1.2947288 -0.13439709 40 39
3.8941939 1.4206226 -0.08535675 38 46
3.798826 1.2606354 -0.47648597 49 10
3.8098807 1.5174838 -0.20520437 34 29
3.9321136 1.2963943 -0.078089751 47 47
3.8114121 1.3821754 -0.30847692 41 21
3.9470177 1.3012975 -0.020853681 45 55
3.8294117 1.3879389 -0.25328362 40 25
3.8538923 1.1454839 -0.4040356 48 14
3.9613886 1.305259 0.036805887 42 63
3.8511508 1.3958082 -0.19786626 42 30
3.8687398 1.1491473 -0.34853467 49 18
3.8677168 1.4010415 -0.14167884 17 38
3.8827472 1.1525565 -0.29408368 46 22
3.9054542 1.159274 -0.2391901 43 26
3.7426996 1.354333 -0.49475846 52 9
3.9228513 1.1636759 -0.18346642 45 32
3.7747426 1.3659135 -0.41742009 49 13
3.9395101 1.1678531 -0.12728854 43 40
3.7894645 1.3704861 -0.36274016 46 17
3.9648058 1.1753269 -0.070839964 45 48
3.9847574 1.1804652 -0.01366299 41 56
3.8923547 1.2772933 -0.1907796 50 31
3.8992593 1.279554 -0.13423218 40 39
3.8944263 1.4053257 -0.085252911 39 46
3.8032036 1.2473674 -0.47648597 52 10
3.8151546 1.5041755 -0.20520437 40 29
3.7170637 1.5910171 -0.32170087 54 20
3.9366148 1.2826611 -0.078089751 38 47
3.8115208 1.3671818 -0.30809423 32 21
3.9467807 1.2859662 -0.020828374 34 55
3.8342333 1.3745632 -0.25328362 38 25
3.8530927 1.130628 -0.40353116 42 14
3.9659204 1.2914232 0.036805887 34 63
3.8559995 1.3823566 -0.19786626 42 30
3.8727274 1.1356357 -0.34853467 44 18
3.8302402 1.3723793 -0.14011621 20 38
3.8867469 1.1389962 -0.29408368 45 22
3.9046857 1.1442351 -0.23889443 41 26
3.7474043 1.3412604 -0.49475846 37 9
3.9268892 1.1499755 -0.18346642 47 32
3.7748051 1.3510551 -0.41689831 33 13
3.9387648 1.1526952 -0.12713234 31 40
3.784847 1.3538997 -0.3618356 29 17
3.9640849 1.1600801 -0.070753567 43 48
3.9744532 1.1623514 -0.013613247 40 56
3.8920376 1.2621611 -0.19054493 42 31
3.8989472 1.2643969 -0.13406728 20 39
3.894599 1.3900445 -0.085149065 36 46
3.8075342 1.2340842 -0.47648597 51 10
3.9283097 1.4020616 -0.028146414 34 54
3.8203816 1.4908491 -0.20520437 37 29
3.8459816 1.5008353 -0.14862809 36 37
3.7317712 1.581924 -0.32250109 45 20
3.9410679 1.2689117 -0.078089751 33 47
3.8162699 1.3538686 -0.30809423 33 21
3.9512455 1.2721813 -0.020828374 17 55
3.8343041 1.3595051 -0.25297052 17 25
3.8570161 1.1171713 -0.40353116 53 14
3.9704044 1.2775717 0.036805887 14 63
3.8608015 1.3688883 -0.19786626 32 30
3.8766682 1.1221104 -0.34853467 41 18
3.8774035 1.3740057 -0.14167884 20 38
3.8906991 1.1254219 -0.29408368 41 22
3.9086561 1.1305982 -0.23889443 37 26
3.7520635 1.3281714 -0.49475846 23 9
3.9308798 1.1362611 -0.18346642 45 32
3.7794983 1.3378704 -0.41689831 28 13
3.9331596 1.1361743 -0.12681998 17 40
3.794245 1.3423387 -0.36228791 17 17
3.9729145 1.1476189 -0.070839964 41 48
3.8964198 1.2485677 -0.19054493 37 31
3.908097 1.2523011 -0.13423218 23 39
3.9041421 1.3781035 -0.085252911 38 46
3.8118188 1.220786 -0.47648597 45 10
3.9284647 1.3866783 -0.028112382 43 54
3.8255627 1.4775043 -0.20520437 43 29
3.8465359 1.4856013 -0.1484466 40 37
3.7234852 1.5630988 -0.32130075 52 20
3.9454734 1.2551471 -0.078089751 23 47
3.8209727 1.3405391 -0.30809423 23 21
3.9556623 1.2583811 -0.020828374 20 55
3.8437362 1.3477619 -0.25328362 20 25
3.8608923 1.103701 -0.40353116 45 14
3.9653087 1.260681 0.036716878 20 63
3.8655562 1.3554032 -0.19786626 40 30
3.8757701 1.1072077 -0.3481006 38 18
3.877459 1.3588119 -0.14150521 20 38
3.8898072 1.1104695 -0.29371837 29 22
3.907778 1.1155819 -0.23859876 17 26
3.7473106 1.3117917 -0.49351376 29 9
3.9300175 1.1211669 -0.18324047 43 32
3.7841454 1.3246692 -0.41689831 20 13
3.9371016 1.1224381 -0.12681998 14 40
3.7942069 1.3274436 -0.3618356 20 17
3.9720869 1.1323775 -0.070753567 33 48
3.9007542 1.234959 -0.19054493 29 31
3.9124444 1.2386516 -0.13423218 23 39
3.9089291 1.364467 -0.085252911 29 46
3.816057 1.2074727 -0.47648597 31 10
3.9332812 1.372957 -0.028112382 48 54
3.8306968 1.4641416 -0.20520437 43 29
3.8516982 1.4721655 -0.1484466 39 37
3.7427244 1.555833 -0.32250109 50 20
3.7603407 1.5631586 -0.26737407 53 24
3.9498308 1.2413671 -0.078089751 28 47
3.8209181 1.3255612 -0.30771151 24 21
3.9600308 1.2445656 -0.020828374 25 55
3.848417 1.3343365 -0.25328362 23 25
3.8599324 1.0888711 -0.40302673 38 14
3.9601426 1.2438415 0.036627866 25 63
3.8655443 1.3402674 -0.19762288 47 30
3.8748164 1.0923251 -0.34766659 17 18
3.8821788 1.3452687 -0.14150521 23 38
3.8936598 1.0968847 -0.29371837 27 22
3.9116485 1.1019343 -0.23859876 20 26
3.7846889 1.3100495 -0.49787015 29 9
3.9339073 1.1074419 -0.18324047 33 32
3.7934461 1.3130769 -0.41742009 25 13
3.9458079 1.1100372 -0.12697618 17 40
3.803524 1.3158174 -0.36228791 23 17
3.9615748 1.1144571 -0.070494398 17 48
3.9050415 1.2213354 -0.19054493 29 31
3.9167445 1.2249871 -0.13423218 25 39
3.9136682 1.3508141 -0.085252911 40 46
3.8249879 1.1956227 -0.47708234 25 10
3.9333227 1.3575894 -0.028078346 45 54
3.9474938 1.3624744 0.029624963 6 62
3.8357842 1.4507611 -0.20520437 42 29
3.8521399 1.4569447 -0.14826514 49 37
3.7341323 1.5377564 -0.37761745 43 16
3.7435238 1.5408612 -0.322101 48 20
3.7703869 1.5519226 -0.26770455 43 24
3.9541397 1.2275722 -0.078089751 36 47
3.8349538 1.3154469 -0.30847692 30 21
3.9643509 1.2307351 -0.020828374 32 55
3.8530514 1.320895 -0.25328362 37 25
3.8685033 1.0767202 -0.40353116 25 14
3.9740131 1.2329676 0.036716878 29 63
3.8701992 1.326766 -0.19762288 44 30
3.8786058 1.0787927 -0.34766659 20 18
3.8868511 1.331709 -0.14150521 29 38
3.8974652 1.0832866 -0.29371837 37 22
3.8803849 1.4575685 -0.092528373 14 45
3.9202814 1.0896056 -0.23889443 20 26
3.7798498 1.2936214 -0.49662548 31 9
3.9377489 1.0937032 -0.18324047 31 32
3.7980063 1.2998272 -0.41742009 29 13
3.9544752 1.0975891 -0.12713234 20 40
3.808094 1.3025327 -0.36228791 28 17
3.9798956 1.1046199 -0.070753567 23 48
3.909281 1.2076968 -0.19054493 49 31
3.9209967 1.2113076 -0.13423218 29 39
3.9136274 1.3355318 -0.085149065 44 46
3.8291378 1.1822637 -0.47708234 28 10
3.9380374 1.3438512 -0.028078346 42 54
3.9474931 1.3470739 0.029589184 42 62
3.8408248 1.4373628 -0.20520437 42 29
3.8572021 1.4434893 -0.14826514 44 37
3.7210405 1.5171925 -0.37573877 54 16
3.7488797 1.5277846 -0.322101 49 20
3.7711618 1.5368687 -0.26737407 49 24
3.9584005 1.2137622 -0.078089751 48 47
3.8395224 1.3020523 -0.30847692 37 21
3.9734039 1.2183521 -0.020853681 40 55
3.8623655 1.3090371 -0.25359666 41 25
3.8722384 1.0632101 -0.40353116 20 14
3.9639487 1.2147028 0.036583364 37 63
3.8748071 1.3132484 -0.19762288 46 30
3.891957 1.0678743 -0.34853467 23 18
3.8914757 1.3181334 -0.14150521 32 38
3.9012227 1.0696754 -0.29371837 30 22
3.8760772 1.4405328 -0.092303239 44 45
3.9240606 1.0759146 -0.23889443 31 26
3.7890422 1.2820075 -0.49724779 32 9
3.9463611 1.0812666 -0.18346642 38 32
3.8072317 1.2881536 -0.41794187 37 13
3.9582822 1.0837786 -0.12713234 23 40
3.8173347 1.290825 -0.36274016 33 17
3.9692583 1.0867732 -0.070494398 28 48
3.9134729 1.1940434 -0.19054493 50 31
3.9252009 1.1976134 -0.13423218 31 39
3.923003 1.3234588 -0.085252911 48 46
3.837991 1.1703352 -0.47767872 32 10
3.9427044 1.3300967 -0.028078346 42 54
3.9521713 1.3332864 0.029589184 38 62
3.8458188 1.4239471 -0.20520437 42 29
3.8622174 1.4300164 -0.14826514 41 37
3.749393 1.513514 -0.37808713 45 16
3.75419 1.5146893 -0.322101 48 20
3.7765036 1.5236956 -0.26737407 43 24
3.9578278 1.1984916 -0.07799463 50 47
3.8393171 1.2870593 -0.30809423 44 21
3.9776328 1.2044749 -0.020853681 49 55
3.8669112 1.2955469 -0.25359666 44 25
3.8807287 1.0509828 -0.4040356 30 14
3.8746316 1.2981302 -0.19737948 47 30
3.9004703 1.0555791 -0.34896871 25 18
3.8960533 1.3045416 -0.14150521 43 38
3.9097478 1.0573485 -0.29408368 34 22
3.8904662 1.430443 -0.092528373 47 45
3.9277925 1.0622106 -0.23889443 23 26
3.793494 1.2687733 -0.49724779 36 9
3.9501112 1.0674847 -0.18346642 44 32
3.8117046 1.274856 -0.41794187 43 13
3.9620414 1.0699551 -0.12713234 42 40
3.8218174 1.2774922 -0.36274016 42 17
3.9223998 1.1818134 -0.1907796 54 31
3.9293575 1.1839046 -0.13423218 39 39
3.9228561 1.3081774 -0.085149065 43 46
3.8420529 1.1569309 -0.47767872 38 10
3.94258 1.3147463 -0.028044311 42 54
3.9568014 1.3194827 0.029589184 38 62
3.8507659 1.4105141 -0.20520437 41 29
3.9894588 1.3295854 0.088057533 10 69
3.862493 1.4148079 -0.14808366 33 37
3.7361643 1.4930257 -0.37620845 42 16
3.7594543 1.5015755 -0.322101 44 20
3.7864318 1.5123549 -0.26770455 40 24
3.803977 1.5178258 -0.21203773 48 28
3.9619873 1.1846689 -0.07799463 52 47
3.8437865 1.2736497 -0.30809423 45 21
3.9674394 1.1862953 -0.020777758 48 55
3.8666723 1.2804742 -0.25328362 45 25
3.8843737 1.0374302 -0.4040356 35 14
3.8838806 1.2861654 -0.19762288 47 30
3.8993173 1.0406775 -0.34853467 31 18
3.8958385 1.2893655 -0.14133158 42 38
3.913415 1.0436945 -0.29408368 47 22
3.8860395 1.413438 -0.092303239 47 45
3.9314764 1.0484935 -0.23889443 46 26
3.7979 1.255524 -0.49724779 41 9
3.9538136 1.0536898 -0.18346642 45 32
3.8114097 1.259984 -0.41742009 52 13
3.9512606 1.0522734 -0.1266638 37 40
3.8262532 1.2641438 -0.36274016 48 17
3.7556338 1.3637997 -0.5318203 45 8
3.9217134 1.1666934 -0.19054493 55 31
3.9334662 1.1701815 -0.13423218 43 39
3.9273982 1.294476 -0.085149065 41 46
3.8460679 1.1435126 -0.47767872 54 10
3.947145 1.300976 -0.028044311 40 54
3.956634 1.3040996 0.029553408 36 62
3.8556662 1.3970639 -0.20520437 43 29
3.9798298 1.3109649 0.087740771 37 69
3.867408 1.4013166 -0.14808366 20 37
3.7404709 1.4803809 -0.43238214 12 12
3.7459815 1.4818066 -0.37667808 23 16
3.7693074 1.4902763 -0.32250109 41 20
3.7870488 1.4972935 -0.26737407 41 24
3.8092523 1.5045382 -0.21203773 45 28
3.9660983 1.1708318 -0.07799463 51 47
3.8482087 1.2602248 -0.30809423 44 21
3.990741 1.1780893 -0.020878989 49 55
3.8711185 1.2669691 -0.25328362 42 25
3.8879714 1.0238649 -0.4040356 45 14
3.8835998 1.2710487 -0.19737948 44 30
3.9029262 1.02706 -0.34853467 36 18
3.9003155 1.2757589 -0.14133158 35 38
3.9170341 1.0300277 -0.29408368 46 22
3.8909495 1.3998646 -0.092303239 40 45
3.9351122 1.0347637 -0.23889443 44 26
3.8022594 1.242259 -0.49724779 49 9
3.9202616 1.409633 -0.035320375 23 53
3.9574676 1.0398818 -0.18346642 43 32
3.8157847 1.2466719 -0.41742009 51 13
3.9742496 1.0435338 -0.12728854 46 40
3.8259089 1.2492365 -0.36228791 43 17
3.7603714 1.3506817 -0.5318203 34 8
3.9257619 1.1529969 -0.19054493 54 31
3.9375267 1.156444 -0.13423218 40 39
3.9318929 1.280759 -0.085149065 40 46
3.8452716 1.1286855 -0.47708234 56 10
3.9469075 1.2856433 -0.028010275 36 54
3.9564073 1.2887336 0.029517628 17 62
3.8558187 1.3819126 -0.2049523 39 29
3.9701197 1.2924281 0.087424025 42 69
3.8769805 1.3894937 -0.14826514 22 37
3.740988 1.4655017 -0.43184307 39 12
3.7511313 1.4687217 -0.37667808 17 16
3.7698455 1.4752932 -0.322101 43 20
3.7922523 1.4840652 -0.26737407 17 24
3.814481 1.4912322 -0.21203773 31 28
3.8450503 1.5024142 -0.15648445 12 36
3.9653609 1.1555848 -0.077899516 48 47
3.8478405 1.2452512 -0.30771151 32 21
3.9804261 1.1599644 -0.020803068 49 55
3.8707685 1.251915 -0.25297052 39 25
3.8867054 1.0090415 -0.40353116 51 14
3.8880126 1.2574847 -0.19737948 40 30
3.9064877 1.01343 -0.34853467 42 18
3.9047451 1.2621363 -0.14133158 20 38
3.9206057 1.0163485 -0.29408368 46 22
3.8911028 1.3845989 -0.092190668 37 45
3.9435334 1.0222694 -0.2391901 44 26
3.8112943 1.2305015 -0.49787015 39 9
3.9204466 1.3942654 -0.035277613 49 53
3.9610734 1.0260614 -0.18346642 45 32
3.8201129 1.2333448 -0.41742009 52 13
3.9633498 1.025911 -0.12681998 43 40
3.830246 1.2358738 -0.36228791 30 17
3.7650635 1.3375473 -0.5318203 23 8
3.9249644 1.1378989 -0.19031027 52 31
3.936739 1.1413041 -0.13406728 33 39
3.9363399 1.2670263 -0.085149065 23 46
3.8491883 1.1152561 -0.47708234 58 10
3.9513714 1.2718581 -0.028010275 20 54
3.965642 1.2764455 0.029553408 13 62
3.8606188 1.3684448 -0.2049523 33 29
3.8441284 1.3626019 -0.14681333 26 37
3.7507148 1.4542317 -0.43238214 28 12
3.7608767 1.4574181 -0.37714776 30 16
3.7749722 1.4621249 -0.322101 24 20
3.7927573 1.4690162 -0.26704356 14 24
3.8196628 1.4779081 -0.21203773 32 28
3.8456118 1.4871805 -0.15629338 42 36
3.9693704 1.1417361 -0.077899516 26 47
3.8521638 1.2318121 -0.30771151 30 21
3.8703609 1.2368785 -0.25265744 30 25
3.890204 0.99546826 -0.40353116 49 14
3.8923786 1.2439053 -0.19737948 31 30
3.9051745 0.99855816 -0.3481006 43 18
3.904367 1.2469804 -0.14115797 17 38
3.919297 1.0014268 -0.29371837 48 22
3.9006276 1.3726666 -0.092303239 32 45
3.9470775 1.0084977 -0.2391901 41 26
3.8155663 1.2171901 -0.49787015 45 9
3.9252896 1.380572 -0.035277613 52 53
3.95979 1.0109973 -0.18324047 45 32
3.8243949 1.2200025 -0.41742009 36 13
3.9717507 1.0133013 -0.12697618 41 40
3.8345368 1.2224963 -0.36228791 39 17
3.7697093 1.3243966 -0.5318203 23 8
3.9289124 1.1241913 -0.19031027 41 31
3.931088 1.1248122 -0.13373747 26 39
3.9407384 1.2532781 -0.085149065 17 46
3.848284 1.1004514 -0.47648597 51 10
3.9557869 1.2580576 -0.028010275 23 54
3.9700735 1.2625951 0.029553408 14 62
3.8653727 1.3549603 -0.2049523 31 29
3.844146 1.3475227 -0.14663187 28 37
3.751128 1.4393492 -0.43184307 23 12
3.7659409 1.4442815 -0.37714776 20 16
3.7800529 1.448939 -0.322101 24 20
3.7978618 1.455768 -0.26704356 14 24
3.8247983 1.4645661 -0.21203773 36 28
3.8507795 1.4737477 -0.15629338 44 36
3.9685216 1.1265113 -0.077804394 17 47
3.8611946 1.2198579 -0.30809423 29 21
3.8794146 1.2248617 -0.25297052 23 25
3.8936553 0.98188281 -0.40353116 50 14
3.8919339 1.228809 -0.1971361 36 30
3.9086361 0.98492044 -0.3481006 46 18
3.9086957 1.233344 -0.14115797 20 38
3.9227686 0.98773974 -0.29371837 39 22
3.9006743 1.3574003 -0.092190668 34 45
3.9457321 0.99349928 -0.23889443 23 26
3.8245244 1.2053533 -0.49849251 23 9
3.9300849 1.3668617 -0.035277613 46 53
3.9632952 0.9971689 -0.18324047 42 32
3.8286302 1.2066455 -0.41742009 24 13
3.9493012 1.3727698 0.022426499 15 61
3.8387809 1.2091038 -0.36228791 20 17
3.7743092 1.3112298 -0.5318203 25 8
3.9280052 1.109116 -0.19007561 27 31
3.9398005 1.1124381 -0.13390237 20 39
3.9498591 1.2410114 -0.085252911 23 46
3.8568802 1.0883567 -0.47708234 32 10
3.9601541 1.2442416 -0.028010275 28 54
3.9792268 1.2502259 0.029589184 20 62
3.8700786 1.3414595 -0.2049523 45 29
3.881875 1.3455467 -0.14790218 28 37
3.7561293 1.4262465 -0.43184307 30 12
3.7709594 1.4311271 -0.37714776 23 16
3.7850876 1.4357353 -0.322101 31 20
3.8122492 1.4460422 -0.26770455 17 24
3.8345561 1.4529759 -0.21229851 44 28
3.8512285 1.4585272 -0.15610233 46 36
3.9579856 1.1086164 -0.077519052 20 47
3.8654289 1.2063725 -0.30809423 24 21
3.883666 1.2113125 -0.25297052 23 25
3.8922298 0.96709043 -0.40302673 45 14
3.9009676 1.2167013 -0.19737948 33 30
3.9120502 0.9712708 -0.3481006 17 18
3.9177475 1.2211776 -0.14133158 25 38
3.9213512 0.97284442 -0.29335302 29 22
3.9053884 1.3437761 -0.092190668 40 45
3.9491761 0.97972006 -0.23889443 23 26
3.8287086 1.191996 -0.49849251 25 9
3.930104 1.3515096 -0.035234854 43 53
3.9570532 0.98093355 -0.1827886 21 32
3.8375673 1.1947501 -0.41794187 23 13
3.9493399 1.3573511 0.022399446 15 61
3.8477328 1.1971738 -0.36274016 23 17
3.7835503 1.2996563 -0.5324859 28 8
3.9318531 1.0953978 -0.19007561 30 31
3.9436598 1.0986788 -0.13390237 25 39
3.9493918 1.2257363 -0.085149065 30 46
3.860656 1.0748869 -0.47708234 25 10
3.9644732 1.2304105 -0.028010275 34 54
3.9740152 1.2333678 0.029517628 20 62
3.8747375 1.3279423 -0.2049523 53 29
3.8865483 1.3319882 -0.14790218 32 37
3.7657373 1.4148754 -0.43238214 41 12
3.7759321 1.4179552 -0.37714776 28 16
3.7947423 1.424266 -0.32250109 35 20
3.8126035 1.4309723 -0.26737407 25 24
3.8349297 1.4378283 -0.21203773 46 28
3.8562965 1.4450749 -0.15610233 48 36
3.9714701 1.0974505 -0.077709287 25 47
3.8743808 1.1943388 -0.30847692 29 21
3.8878708 1.1977485 -0.25297052 35 25
3.895582 0.95349818 -0.40302673 31 14
3.9004173 1.2016083 -0.1971361 43 30
3.9105775 0.95643044 -0.34766659 20 18
3.9219866 1.2074946 -0.14133158 29 38
3.9247234 0.95915043 -0.29335302 27 22
3.9100554 1.3301356 -0.092190668 48 45
3.9477227 0.96474856 -0.23859876 23 26
3.8328462 1.178624 -0.49849251 25 9
3.9347978 1.3377827 -0.035234854 65 53
3.960453 0.96711493 -0.1827886 28 32
3.8417146 1.1813473 -0.41794187 29 13
3.9540541 1.3435571 0.022399446 30 61
3.8518884 1.1837355 -0.36274016 25 17
3.7833717 1.2848485 -0.5318203 28 8
3.9356525 1.0816664 -0.19007561 29 31
3.9522903 1.0862273 -0.13406728 29 39
3.9536467 1.2119429 -0.085149065 39 46
3.8643844 1.0614043 -0.47708234 28 10
3.9735253 1.2180281 -0.028044311 42 54
3.9878581 1.2224154 0.029589184 25 62
3.8793495 1.3144088 -0.2049523 46 29
3.8911741 1.3184136 -0.14790218 47 37
3.7659948 1.3999892 -0.43184307 50 12
3.7808588 1.4047661 -0.37714776 32 16
3.7950187 1.4092755 -0.322101 48 20
3.8175752 1.4176552 -0.26737407 42 24
3.8399255 1.4244332 -0.21203773 46 28
3.8613169 1.4316051 -0.15610233 46 36
3.8726108 1.4350251 -0.099335834 46 44
3.9608045 1.079646 -0.077423938 30 47
3.8737569 1.1793575 -0.30809423 35 21
3.8872533 1.1827193 -0.25265744 41 25
3.8988864 0.9398942 -0.40302673 29 14
3.9093668 1.189438 -0.19737948 49 30
3.9187357 0.94393611 -0.3481006 23 18
3.9213967 1.1923454 -0.14115797 35 38
3.9280477 0.94544476 -0.29335302 28 22
3.9146748 1.3164788 -0.092190668 49 45
3.9559197 0.95212597 -0.23889443 25 26
3.8416843 1.1666774 -0.49911478 25 9
3.9394436 1.3240397 -0.035234854 66 53
3.9589474 0.95212096 -0.18256265 25 32
3.8505733 1.1693729 -0.41846362 35 13
3.9539797 1.3281552 0.022372393 43 61
3.8607624 1.1717269 -0.36319247 37 17
3.7878332 1.2716341 -0.5318203 32 8
3.9442258 1.0692253 -0.19031027 47 31
3.956058 1.0724245 -0.13406728 33 39
3.9530683 1.1966883 -0.085045218 43 46
3.8680661 1.0479087 -0.47708234 28 10
3.9777529 1.2041504 -0.028044311 43 54
3.8839138 1.3008593 -0.2049523 43 29
3.8957524 1.3048228 -0.14790218 51 37
3.7708585 1.386835 -0.43184307 51 12
3.7810669 1.3898418 -0.37667808 40 16
3.7999151 1.3960199 -0.322101 46 20
3.8178177 1.4025997 -0.26704356 47 24
3.8448741 1.4110208 -0.21203773 49 28
3.8615999 1.4163966 -0.15591125 43 36
3.8729033 1.4197774 -0.099214546 46 44
3.8730755 1.164395 -0.30771151 40 21
3.8913579 1.169143 -0.25265744 44 25
3.9021437 0.92627877 -0.40302673 28 14
3.9134951 1.1757845 -0.19737948 52 30
3.9220066 0.93025136 -0.3481006 25 18
3.9303205 1.1800847 -0.14133158 48 38
3.9361773 0.93287301 -0.29371837 34 22
3.9192462 1.302806 -0.092190668 50 45
3.9592192 0.9383114 -0.23889443 25 26
3.840981 1.1518371 -0.49849251 29 9
3.9440415 1.3102803 -0.035234854 64 53
3.9573853 0.93714935 -0.18233669 32 32
3.8546317 1.1559248 -0.41846362 41 13
3.9538465 1.3127702 0.022345342 40 61
3.8648291 1.1582433 -0.36319247 41 17
3.7969525 1.2599646 -0.5324859 42 8
3.9479342 1.0554509 -0.19031027 50 31
3.9597776 1.0586088 -0.13406728 42 39
3.957221 1.1828821 -0.085045218 43 46
3.8717003 1.0344001 -0.47708234 32 10
3.9723496 1.1873978 -0.027976245 48 54
3.8836899 1.2857251 -0.2047002 42 29
3.9002836 1.2912161 -0.14790218 59 37
3.7710054 1.3719636 -0.43130392 52 12
3.7858956 1.3766348 -0.37667808 48 16
3.8047647 1.3827472 -0.322101 48 20
3.827379 1.3909692 -0.26737407 45 24
3.849776 1.397591 -0.21203773 48 28
3.8665204 1.4029084 -0.15591125 33 36
3.882535 1.4079546 -0.099335834 43 44
3.7306137 1.6068271 -0.33735639 64 19
3.8771162 1.1508683 -0.30771151 44 21
3.8954151 1.1555525 -0.25265744 44 25
3.9101982 0.91377968 -0.40353116 35 14
3.9175751 1.1621166 -0.19737948 47 30
3.9300818 0.91768348 -0.34853467 28 18
3.9344163 1.1663582 -0.14133158 49 38
3.9394097 0.91912758 -0.29371837 48 22
3.9190204 1.2875577 -0.092078105 43 45
3.9576089 0.92335594 -0.23859876 28 26
3.8402205 1.1370161 -0.49787015 32 9
3.948591 1.2965051 -0.035234854 41 53
3.8538747 1.1410528 -0.41794187 52 13
3.958405 1.2989608 0.022345342 14 61
3.864073 1.1433345 -0.36274016 38 17
3.7966185 1.2451593 -0.5318203 49 8
3.9515941 1.0416638 -0.19031027 54 31
3.9537826 1.0422391 -0.13373747 48 39
3.9613261 1.1690617 -0.085045218 43 46
3.8752873 1.0208791 -0.47708234 37 10
3.981266 1.1749378 -0.028010275 43 54
3.8881543 1.2721608 -0.2047002 40 29
3.9000177 1.2760406 -0.14772069 35 37
3.7476654 1.6033374 -0.28180912 95 23
3.7757714 1.3587921 -0.43130392 43 12
3.7906778 1.3634113 -0.37667808 43 16
3.8095684 1.3694577 -0.322101 42 20
3.8322113 1.3776008 -0.26737407 43 24
3.8546314 1.3841442 -0.21203773 41 28
3.8713939 1.3894032 -0.15591125 23 36
3.8827209 1.3927051 -0.099214546 36 44
3.7361996 1.5937952 -0.33735639 96 19
3.9165983 1.4048617 -0.041756865 37 52
3.8385634 1.5180656 -0.1636261 52 35
3.88111 1.1373277 -0.30771151 44 21
3.899425 1.141948 -0.25265744 42 25
3.9133642 0.90012497 -0.40353116 49 14
3.921608 1.1484346 -0.19737948 45 30
3.9284055 0.90284812 -0.3481006 31 18
3.9336679 1.1512159 -0.14115797 48 38
3.9377327 0.90425926 -0.29335302 48 22
3.923491 1.2738699 -0.092078105 32 45
3.9608076 0.90953571 -0.23859876 33 26
3.844166 1.1236043 -0.49787015 37 9
3.9483364 1.2811714 -0.035192091 38 53
3.8530605 1.1262002 -0.41742009 54 13
3.9629149 1.2851356 0.022345342 13 61
3.8680403 1.1298394 -0.36274016 44 17
3.8009419 1.231899 -0.5318203 48 8
3.9552062 1.0278636 -0.19031027 54 31
3.9719088 1.0321925 -0.13423218 48 39
3.9605825 1.1538305 -0.08494138 40 46
3.8788271 1.0073456 -0.47708234 52 10
3.985343 1.1610334 -0.028010275 40 54
3.8925712 1.2585808 -0.2047002 39 29
3.904448 1.2624191 -0.14772069 23 37
3.7486486 1.5882971 -0.28146124 95 23
3.7758086 1.3439362 -0.43076476 38 12
3.7860346 1.3468331 -0.37573877 39 16
3.8096294 1.3544812 -0.32170087 45 20
3.8322957 1.3625433 -0.26704356 17 24
3.8547344 1.369009 -0.21177691 41 28
3.8620956 1.3708653 -0.15533806 32 36
3.8828483 1.3774717 -0.099093266 30 44
3.7371514 1.5788015 -0.33693886 96 19
3.9167662 1.3895092 -0.041706249 35 52
3.8438392 1.5046571 -0.1636261 31 35
3.8898458 1.1251565 -0.30809423 37 21
3.9081824 1.1297135 -0.25297052 38 25
3.9164822 0.88645929 -0.40353116 52 14
3.9207945 1.1333538 -0.1971361 42 30
3.9315331 0.88913 -0.3481006 50 18
3.9280593 1.1347079 -0.14081071 35 38
3.9457302 0.89160317 -0.29371837 51 22
3.9279134 1.2601665 -0.092078105 37 45
3.9639585 0.89570439 -0.23859876 40 26
3.8432975 1.1088054 -0.49724779 43 9
3.9527845 1.2673813 -0.035192091 23 53
3.8569684 1.1127436 -0.41742009 56 13
3.962615 1.2697693 0.022318289 14 61
3.8719606 1.1163305 -0.36274016 29 17
3.8099384 1.2201346 -0.5324859 36 8
3.95877 1.0140513 -0.19031027 49 31
3.9658039 1.0158482 -0.13390237 44 39
3.964586 1.1399986 -0.08494138 17 46
3.8823199 0.99379981 -0.47708234 54 10
3.984566 1.1457353 -0.027976245 39 54
3.8969407 1.2449855 -0.2047002 30 29
3.9088309 1.2487824 -0.14772069 17 37
3.7541699 1.5752022 -0.28146124 96 23
3.7851658 1.3323991 -0.43130392 27 12
3.7954082 1.3352618 -0.37620845 20 16
3.8143344 1.341175 -0.32170087 31 20
3.837029 1.3491579 -0.26704356 17 24
3.8594897 1.3555452 -0.21177691 28 28
3.8715713 1.3590312 -0.15552911 17 36
3.8970656 1.3672203 -0.099335834 25 44
3.7426398 1.5657469 -0.33693886 96 19
3.9263105 1.3774847 -0.041756865 44 52
3.8444102 1.489424 -0.16342632 37 35
3.8889554 1.1102048 -0.30771151 33 21
3.9025033 1.1133301 -0.25234434 34 25
3.9195528 0.87278277 -0.40353116 53 14
3.9199243 1.1182927 -0.19689275 48 30
3.9346128 0.8754009 -0.3481006 49 18
3.9319961 1.1209896 -0.14081071 20 38
3.9439495 0.87674683 -0.29335302 51 22
3.9370542 1.2479578 -0.092190668 29 45
3.9670608 0.88186204 -0.23859876 43 26
3.8519166 1.0967396 -0.49787015 48 9
3.9571846 1.2535758 -0.035192091 28 53
3.865612 1.1006333 -0.41794187 35 13
3.9717906 1.2574381 0.022345342 14 61
3.8710442 1.1014473 -0.36228791 40 17
3.8141742 1.2068279 -0.5324859 25 8
3.957442 0.99900711 -0.19007561 43 31
3.9637318 1.1247898 -0.084837548 13 46
3.8857651 0.98024189 -0.47708234 57 10
3.8965003 1.2298725 -0.20444809 23 29
3.9131663 1.2351304 -0.14772069 28 37
3.7596455 1.5620881 -0.28146124 96 23
3.7897935 1.3191785 -0.43130392 29 12
3.800046 1.3220053 -0.37620845 17 16
3.8189929 1.3278521 -0.32170087 24 20
3.8417149 1.3357559 -0.26704356 17 24
3.8689144 1.3437036 -0.21203773 28 28
3.8810112 1.3471477 -0.15572019 25 36
3.8970921 1.3519696 -0.099214546 23 44
3.7434807 1.550763 -0.33652133 37 19
3.9263713 1.3621314 -0.041706249 46 52
3.946079 1.3821027 0.015192185 13 60
3.849586 1.4759954 -0.16342632 46 35
3.8928068 1.0966232 -0.30771151 45 21
3.9111695 1.1010514 -0.25265744 20 25
3.9177151 0.85803598 -0.40302673 54 14
3.923804 1.1046028 -0.19689275 30 30
3.9376447 0.8616612 -0.3481006 37 18
3.9406965 1.1086088 -0.14098434 14 38
3.946986 0.86297464 -0.29335302 49 22
3.9366155 1.2327141 -0.092078105 30 45
3.9652379 0.86694747 -0.2383031 40 26
3.8557215 1.0832875 -0.49787015 46 9
3.9615359 1.2397552 -0.035192091 32 53
3.8646429 1.08579 -0.41742009 49 13
3.9713831 1.2420743 0.022318289 20 61
3.8700705 1.086584 -0.3618356 38 17
3.8230939 1.1949844 -0.53315151 17 8
3.9609053 0.98518699 -0.19007561 38 31
3.967634 1.110947 -0.084837548 17 46
3.8843448 0.96547776 -0.47648597 55 10
3.9007697 1.2162638 -0.20444809 30 29
3.9174538 1.2214634 -0.14772069 34 37
3.7669785 1.2965082 -0.579427 53 7
3.7604637 1.5470542 -0.28111333 38 23
3.7943752 1.3059416 -0.43130392 30 12
3.7870789 1.5572511 -0.2262066 95 27
3.8046377 1.3087324 -0.37620845 17 16
3.8236043 1.3145133 -0.32170087 26 20
3.8463538 1.3223376 -0.26704356 17 24
3.8688591 1.328568 -0.21177691 36 28
3.8856902 1.3335922 -0.15572019 30 36
3.7392926 1.534513 -0.39207259 96 15
3.9017875 1.338358 -0.099214546 31 44
3.7442622 1.5357926 -0.33610386 47 19
3.931102 1.3484175 -0.041706249 51 52
3.9414306 1.3650463 0.015155531 46 60
3.8500445 1.4607748 -0.16322654 50 35
3.8845108 1.4738673 -0.10713077 59 43
3.8966112 1.083028 -0.30771151 49 21
3.9149892 1.0873922 -0.25265744 23 25
3.9206862 0.84435534 -0.40302673 54 14
3.9324477 1.0922339 -0.1971361 20 30
3.9357579 0.8468678 -0.34766659 39 18
3.9493577 1.0961812 -0.14115797 25 38
3.9499745 0.84919184 -0.29335302 47 22
3.9408946 1.2189652 -0.092078105 29 45
3.8594794 1.0698218 -0.49787015 25 9
3.9658396 1.2259191 -0.035192091 47 53
3.8732018 1.0736197 -0.41794187 37 13
3.9756944 1.228204 0.022318289 23 61
3.8786395 1.0743958 -0.36228791 23 17
3.8272417 1.181632 -0.53315151 23 8
3.9643199 0.97135478 -0.19007561 23 31
3.9763067 1.0984198 -0.08494138 20 46
3.8876913 0.95191306 -0.47648597 41 10
3.9049916 1.2026401 -0.20444809 42 29
3.9216938 1.2077816 -0.14772069 34 37
3.771481 1.2833511 -0.579427 41 7
3.765841 1.5339183 -0.28111333 47 23
3.8036163 1.2942908 -0.43184307 37 12
3.8063593 1.5496789 -0.2270413 96 27
3.8138952 1.2970473 -0.37667808 23 16
3.8328884 1.3027629 -0.322101 32 20
3.8509464 1.3089033 -0.26704356 23 24
3.8782005 1.3166609 -0.21203773 46 28
3.8903217 1.3200204 -0.15572019 38 36
3.7123632 1.5083175 -0.38866326 80 15
3.9064357 1.3247302 -0.099214546 41 44
3.7496006 1.5227134 -0.33610386 48 19
3.9310505 1.3330809 -0.041655634 50 52
3.9509017 1.3529003 0.015173858 41 60
3.8551199 1.4473268 -0.16322654 50 35
3.8802743 1.4567817 -0.10687075 63 43
3.900368 1.0694197 -0.30771151 27 21
3.9139478 1.0724031 -0.25234434 25 25
3.9236097 0.83066446 -0.40302673 32 14
3.9362364 1.0785005 -0.1971361 31 30
3.9386902 0.83312428 -0.34766659 25 18
3.9483397 1.0810708 -0.14098434 30 38
3.9431548 0.83334553 -0.29262239 43 22
3.9451253 1.2052015 -0.092078105 39 45
3.8631902 1.0563431 -0.49787015 25 9
3.9700947 1.2120683 -0.035192091 49 53
3.8769259 1.060093 -0.41794187 30 13
3.9799576 1.2143189 0.022318289 29 61
3.8871696 1.0621606 -0.36274016 25 17
3.8313432 1.1682653 -0.53315151 25 8
3.9628315 0.95634252 -0.18984096 28 31
3.9704692 1.0819085 -0.084733702 23 46
3.8909905 0.93833667 -0.47648597 28 10
3.9091656 1.1890018 -0.20444809 50 29
3.9258857 1.1940849 -0.14772069 36 37
3.7806263 1.2717562 -0.58015311 38 7
3.7711723 1.5207638 -0.28111333 45 23
3.8081112 1.2810059 -0.43184307 37 12
3.7886002 1.527036 -0.22565012 42 27
3.8231175 1.2853132 -0.37714776 29 16
3.8374126 1.2893758 -0.322101 38 20
3.8602209 1.2970428 -0.26737407 31 24
3.8780398 1.3015262 -0.21177691 45 28
3.8949053 1.3064327 -0.15572019 49 36
3.759145 1.5120908 -0.39304668 33 15
3.9157751 1.3126755 -0.099335834 45 44
3.7548928 1.5096155 -0.33610386 46 19
3.9404199 1.3209406 -0.041706249 50 52
3.9508643 1.3374968 0.015155531 38 60
3.988162 1.3501287 0.07359235 11 68
3.8601487 1.433861 -0.16322654 47 35
3.8806512 1.4414859 -0.10674073 35 43
3.90889 1.0570979 -0.30809423 32 21
3.9224851 1.060034 -0.25265744 38 25
3.9216144 0.81595474 -0.40252233 33 14
3.9351561 1.063453 -0.19689275 41 30
3.9415743 0.81937063 -0.34766659 25 18
3.9520893 1.067282 -0.14098434 38 38
3.9558065 0.82159525 -0.29335302 40 22
3.9445231 1.1899801 -0.091965549 48 45
3.866854 1.0428517 -0.49787015 28 9
3.9743013 1.1982027 -0.035192091 53 53
3.8806026 1.0465537 -0.41794187 35 13
3.8956623 1.0498793 -0.36319247 35 17
3.835398 1.1548842 -0.53315151 30 8
3.9661458 0.94250381 -0.18984096 30 31
3.9790502 1.0693378 -0.084837548 34 46
3.894242 0.9247489 -0.47648597 28 10
3.9180756 1.1767849 -0.2047002 54 29
3.9300301 1.1803737 -0.14772069 52 37
3.7850425 1.2585514 -0.58015311 49 7
3.7764578 1.5075907 -0.28111333 45 23
3.8125596 1.2677051 -0.43184307 51 12
3.8124497 1.5212146 -0.22676307 26 27
3.8275812 1.2719601 -0.37714776 31 16
3.8418901 1.2759728 -0.322101 49 20
3.8647251 1.2835603 -0.26737407 40 24
3.8825593 1.2879814 -0.21177691 46 28
3.8946998 1.2912562 -0.15552911 44 36
3.7274246 1.4842079 -0.38915029 36 15
3.9155884 1.297426 -0.099214546 43 44
3.7601395 1.4964993 -0.33610386 45 19
3.9450068 1.307178 -0.041706249 47 52
3.9507682 1.3221103 0.015137207 32 60
3.9738884 1.3298508 0.073239811 41 68
3.8604417 1.4186528 -0.16302675 43 35
3.8809686 1.4262052 -0.10661072 43 43
3.9077384 1.0421642 -0.30771151 39 21
3.9261615 1.0463356 -0.25265744 44 25
3.9293132 0.80325246 -0.40302673 31 14
3.9436698 1.0509942 -0.1971361 49 30
3.9444106 0.80560696 -0.34766659 25 18
3.9606202 1.0547643 -0.14115797 50 38
3.9439898 0.80480456 -0.29225707 28 22
3.9534431 1.1776302 -0.092078105 46 45
3.8704705 1.0293475 -0.49787015 41 9
3.9736681 1.1828969 -0.035149332 46 53
3.884232 1.0330015 -0.41794187 36 13
3.89449 1.0349975 -0.36274016 41 17
3.8394058 1.1414893 -0.53315151 39 8
3.8974464 0.91114974 -0.47648597 29 10
3.917371 1.1616819 -0.20444809 46 29
3.9341261 1.1666481 -0.14772069 52 37
3.7847133 1.2437865 -0.579427 53 7
3.9223139 1.418148 -0.049796235 43 51
3.7816973 1.4943991 -0.28111333 32 23
3.8169613 1.254389 -0.43184307 48 12
3.8038106 1.5023867 -0.22592837 33 27
3.8272684 1.2570379 -0.37667808 48 16
3.8415854 1.2609994 -0.32170087 46 20
3.8644419 1.2685053 -0.26704356 41 24
3.8870318 1.2744209 -0.21177691 45 28
3.8944359 1.2760967 -0.15533806 42 36
3.7372112 1.4730154 -0.38963735 40 15
3.9200935 1.2837502 -0.099214546 43 44
3.7653406 1.4833649 -0.33610386 39 19
3.9495456 1.2933993 -0.041706249 49 52
3.955359 1.3083116 0.015137207 40 60
3.9785061 1.3159713 0.073239811 38 68
3.86537 1.4051688 -0.16302675 37 35
3.8812258 1.4109398 -0.1064807 42 43
3.9113526 1.0285172 -0.30771151 42 21
3.9297898 1.0326245 -0.25265744 44 25
3.9369712 0.79050642 -0.40353116 34 14
3.9473143 1.0372219 -0.1971361 52 30
3.9520829 0.79280859 -0.3481006 31 18
3.9642777 1.0409325 -0.14115797 49 38
3.9527345 1.1624135 -0.091965549 44 45
3.8740401 1.0158308 -0.49787015 48 9
3.977773 1.1690189 -0.035149332 64 53
3.8878143 1.0194366 -0.41794187 43 13
3.8980792 1.0213969 -0.36274016 44 17
3.8433669 1.1280804 -0.53315151 49 8
3.9054418 0.89864963 -0.47708234 42 10
3.9214022 1.1480006 -0.20444809 42 29
3.9381745 1.1529083 -0.14772069 39 37
3.7937365 1.2320964 -0.58015311 53 7
3.9319475 1.4061333 -0.04985645 68 51
3.7822468 1.4793694 -0.28076541 37 23
3.8165889 1.2395216 -0.43130392 53 12
3.8090317 1.4890999 -0.22592837 35 27
3.8316331 1.2436705 -0.37667808 45 16
3.8351204 1.4985467 -0.17035028 34 34
3.8459637 1.2475821 -0.32170087 43 20
3.8688462 1.2550082 -0.26704356 45 24
3.8914564 1.2608449 -0.21177691 43 28
3.8988664 1.2624948 -0.15533806 35 36
3.7423301 1.4599613 -0.38963735 38 15
3.9197955 1.2685192 -0.099093266 25 44
3.7658546 1.4683993 -0.33568633 43 19
3.9492798 1.2780651 -0.041655634 41 52
3.9599016 1.2944968 0.015137207 13 60
3.9783244 1.3005219 0.073151685 39 68
3.8702517 1.3916676 -0.16302675 23 35
3.8814247 1.3956901 -0.10635068 28 43
3.9149189 1.0148579 -0.30771151 45 21
3.9333706 1.0189005 -0.25265744 43 25
3.9397068 0.77675909 -0.40353116 39 14
3.9509108 1.0234368 -0.1971361 45 30
3.9548261 0.77900845 -0.3481006 28 18
3.9630489 1.025838 -0.14098434 54 38
3.9519668 1.1472156 -0.091852978 23 45
3.8775625 1.0023016 -0.49787015 52 9
3.9818294 1.1551268 -0.035149332 64 53
3.8865342 1.0046169 -0.41742009 48 13
3.9016209 1.0077838 -0.36274016 48 17
3.8472812 1.1146575 -0.53315151 50 8
3.9085548 0.88501161 -0.47708234 50 10
3.925386 1.1343055 -0.20444809 40 29
3.9421751 1.1391546 -0.14772069 37 37
3.8027246 1.2203586 -0.58087921 53 7
3.9274065 1.389062 -0.049736027 44 51
3.782737 1.464354 -0.28041747 27 23
3.8256254 1.2277113 -0.43184307 41 12
3.8095515 1.47399 -0.22565012 38 27
3.8359511 1.230288 -0.37667808 44 16
3.840328 1.4851505 -0.17035028 45 34
3.8502951 1.2341496 -0.32170087 38 20
3.8637013 1.2384486 -0.26638255 13 24
3.8910785 1.2457303 -0.2115161 41 28
3.9080081 1.2504008 -0.15552911 25 36
3.7520449 1.4486846 -0.39012441 34 15
3.9289603 1.2563516 -0.099214546 14 44
3.7756045 1.4570419 -0.33610386 22 19
3.9537172 1.2642716 -0.041655634 39 52
3.9643962 1.2806662 0.015137207 14 60
3.9828398 1.2866269 0.073151685 38 68
3.8703792 1.3764733 -0.16282696 28 35
3.8721468 1.3771027 -0.10596064 28 43
3.9184377 1.001186 -0.30771151 44 21
3.9369032 1.0051644 -0.25265744 41 25
3.942394 0.76300216 -0.40353116 50 14
3.9544592 1.0096394 -0.1971361 52 30
3.9624128 0.76613986 -0.34853467 30 18
3.9714484 1.0132316 -0.14115797 44 38
3.9559472 1.1334137 -0.091852978 28 45
3.8762293 0.98753738 -0.49724779 36 9
3.98103 1.139845 -0.035106573 41 53
3.890017 0.99104416 -0.41742009 49 13
3.9002893 0.99293202 -0.36228791 47 17
3.8368545 1.0971358 -0.53115469 51 8
3.9116204 0.87136281 -0.47708234 53 10
3.9293213 1.1205963 -0.20444809 38 29
3.9365172 1.1226474 -0.14735776 25 37
3.8069613 1.2070771 -0.58087921 51 7
3.9369497 1.3769966 -0.049796235 46 51
3.7878258 1.451141 -0.28041747 25 23
3.8251495 1.2128468 -0.43130392 32 12
3.9469047 1.3797096 0.0079578236 12 59
3.8146737 1.4606833 -0.22565012 39 27
3.8402221 1.2168905 -0.37667808 39 16
3.8408239 1.4699476 -0.17014177 47 34
3.8545797 1.2207019 -0.32170087 38 20
3.8473375 1.4724454 -0.11334778 12 42
3.8680007 1.2249542 -0.26638255 14 24
3.8954031 1.2321403 -0.2115161 20 28
3.912349 1.2367517 -0.15552911 17 36
3.7617259 1.437358 -0.39061141 23 15
3.933322 1.2426294 -0.099214546 14 44
3.7760141 1.442073 -0.33568633 24 19
3.9581063 1.2504629 -0.041655634 28 52
3.9688425 1.2668201 0.015137207 17 60
3.8751602 1.3629547 -0.16282696 30 35
3.8863595 1.3668987 -0.10622068 21 43
3.9170735 0.9862867 -0.30732876 38 21
3.940388 0.99141586 -0.25265744 34 25
3.9450336 0.74923605 -0.40353116 53 14
3.9531164 0.99461305 -0.19689275 46 30
3.9650631 0.75230378 -0.34853467 34 18
3.974961 0.99936247 -0.14115797 43 38
3.9598794 1.119598 -0.091852978 14 45
3.879653 0.97400087 -0.49724779 36 9
3.8934531 0.97745955 -0.41742009 49 13
3.9037313 0.97931135 -0.36228791 44 17
3.8406608 1.0837361 -0.53115469 40 8
3.9097879 0.85664415 -0.47648597 55 10
3.923595 1.1041695 -0.20394392 17 29
3.9404118 1.1088996 -0.14735776 17 37
3.8111515 1.193781 -0.58087921 49 7
3.9370084 1.3616099 -0.049736027 44 51
3.7975314 1.4396815 -0.28076541 27 23
3.8341033 1.2009737 -0.43184307 26 12
3.9516966 1.3659239 0.0079578236 36 59
3.8244164 1.4491308 -0.22592837 34 27
3.8444464 1.2034782 -0.37667808 20 16
3.8459318 1.4565316 -0.17014177 47 34
3.8588173 1.2072395 -0.32170087 28 20
3.871146 1.4660995 -0.11390272 94 42
3.8770146 1.2129352 -0.26671305 20 24
3.8996806 1.2185353 -0.2115161 17 28
3.9118733 1.2215976 -0.15533806 23 36
3.7620668 1.4224554 -0.39012441 29 15
3.9328647 1.2274023 -0.099093266 17 44
3.7856846 1.4306479 -0.33610386 27 19
3.9624472 1.2366389 -0.041655634 29 52
3.9732401 1.2529587 0.015137207 20 60
3.8846128 1.3510628 -0.16302675 29 35
3.9005475 1.3566118 -0.1064807 32 43
3.9204926 0.97260749 -0.30732876 27 21
3.9438248 0.97765535 -0.25265744 20 25
3.9427338 0.73455417 -0.40302673 53 14
3.9565644 0.98080814 -0.19689275 20 30
3.9725628 0.7393654 -0.34896871 43 18
3.9589486 1.104426 -0.091740415 17 45
3.8830292 0.96045232 -0.49724779 25 9
3.8968413 0.96386284 -0.41742009 32 13
3.9071262 0.96567887 -0.36228791 39 17
3.8444202 1.0703232 -0.53115469 25 8
3.9127545 0.84299117 -0.47648597 54 10
3.9274254 1.0904667 -0.20394392 20 29
3.9490736 1.0964743 -0.14753924 28 37
3.8105695 1.1790075 -0.58015311 49 7
3.9370067 1.3462392 -0.049675811 46 51
3.8072021 1.4281719 -0.28111333 37 23
3.8382721 1.187583 -0.43184307 25 12
3.9517097 1.3505027 0.0079482244 31 59
3.8294516 1.4357723 -0.22592837 37 27
3.8486238 1.1900513 -0.37667808 20 16
3.8509924 1.4430978 -0.17014177 46 34
3.8630078 1.1937623 -0.32170087 24 20
3.8528442 1.4437932 -0.11320903 100 42
3.8812249 1.1993945 -0.26671305 20 24
3.9039102 1.2049155 -0.2115161 29 28
3.9161139 1.2079351 -0.15533806 29 36
3.7716689 1.4110614 -0.39061141 34 15
3.9371247 1.2136666 -0.099093266 25 44
3.7906551 1.4174247 -0.33610386 34 19
3.9667394 1.2227999 -0.041655634 38 52
3.972816 1.237594 0.015118881 23 60
3.8845811 1.335868 -0.16282696 35 35
3.9052594 1.3429881 -0.1064807 32 43
3.9238636 0.95891654 -0.30732876 43 21
3.9423652 0.96270102 -0.25234434 23 25
3.9452736 0.72078699 -0.40302673 54 14
3.9696674 0.9693566 -0.19737948 23 30
3.9675989 1.0919257 -0.091852978 28 45
3.886358 0.9468922 -0.49724779 28 9
3.8953502 0.94907922 -0.41689831 32 13
3.9104731 0.95203459 -0.36228791 34 17
3.8481331 1.056897 -0.53115469 20 8
3.9156733 0.829328 -0.47648597 53 10
3.9360242 1.0780693 -0.20419599 29 29
3.957696 1.084002 -0.14772069 37 37
3.8099313 1.1642526 -0.579427 37 7
3.9416821 1.3324883 -0.049675811 51 51
3.8121645 1.4148734 -0.28111333 42 23
3.8471475 1.1756307 -0.43238214 28 12
3.9563997 1.3367007 0.0079482244 34 59
3.83444 1.4223962 -0.22592837 38 27
3.8527546 1.1766099 -0.37667808 20 16
4.0032697 1.3525562 0.066544861 8 67
3.8513234 1.4279069 -0.16993326 45 34
3.8719177 1.1817262 -0.322101 29 20
3.8672307 1.4338164 -0.1134865 43 42
3.8901598 1.1872964 -0.26704356 28 24
3.9080923 1.191281 -0.2115161 36 28
3.9203062 1.194258 -0.15533806 39 36
3.776571 1.3978872 -0.39061141 52 15
3.9413376 1.199916 -0.099093266 39 44
3.7955799 1.4041841 -0.33610386 42 19
3.9662013 1.2074891 -0.041605026 45 52
3.9818907 1.2251898 0.015137207 28 60
3.8892205 1.3223003 -0.16282696 54 35
3.9099233 1.3293481 -0.1064807 39 43
3.9077313 1.4574041 -0.057012565 6 50
3.9271872 0.94521391 -0.30732876 28 21
3.9457016 0.94893372 -0.25234434 26 25
3.9526629 0.70788342 -0.40353116 54 14
3.9633152 0.95316237 -0.19689275 23 30
3.9617381 1.0754517 -0.091627844 32 45
3.8896396 0.93332058 -0.49724779 39 9
3.9034753 0.93663454 -0.41742009 49 13
3.9137726 0.93837869 -0.36228791 28 17
3.8517985 1.0434582 -0.53115469 30 8
3.9185443 0.81565475 -0.47648597 28 10
3.9397633 1.0643234 -0.20419599 39 29
3.9566321 1.0688782 -0.14753924 48 37
3.813972 1.1509464 -0.579427 43 7
3.9463093 1.3187212 -0.049675811 69 51
3.8123989 1.3998356 -0.28076541 45 23
3.8559864 1.1636313 -0.43292129 32 12
3.9562995 1.3212962 0.0079386244 43 59
3.8346958 1.4072797 -0.22565012 42 27
3.8616037 1.164592 -0.37714776 25 16
3.9842601 1.3306463 0.066147819 40 67
3.8562841 1.4144545 -0.16993326 42 34
3.8760192 1.1682035 -0.322101 35 20
3.8722122 1.4203085 -0.1134865 39 42
3.8895032 1.1722695 -0.26671305 32 24
3.9122269 1.1776319 -0.2115161 40 28
3.9292355 1.1820061 -0.15552911 46 36
3.7814276 1.384696 -0.39061141 49 15
3.9455018 1.1861509 -0.099093266 40 44
3.8004582 1.3909266 -0.33610386 47 19
3.9703918 1.1936371 -0.041605026 49 52
3.9813592 1.2098286 0.015118881 30 60
3.8938124 1.3087163 -0.16282696 46 35
3.9145398 1.3156918 -0.1064807 42 43
3.9081056 1.4420211 -0.056943633 108 50
3.800719 1.5300065 -0.17660457 96 33
3.9353139 0.93264741 -0.30771151 31 21
3.9489899 0.93515486 -0.25234434 31 25
3.9551101 0.69408172 -0.40353116 55 14
3.9714775 0.94047076 -0.1971361 28 30
3.9702966 1.0629082 -0.091740415 32 45
3.8928738 0.91973752 -0.49724779 28 9
3.901881 0.92186177 -0.41689831 30 13
3.9170241 0.92471129 -0.36228791 29 17
3.8554175 1.0300065 -0.53115469 29 8
3.9116387 0.79998857 -0.47529328 30 10
3.9434545 1.0505646 -0.20419599 50 29
3.965167 1.0563459 -0.14772069 50 37
3.8179662 1.1376262 -0.579427 56 7
3.9508884 1.304938 -0.049675811 51 51
3.8219488 1.3882253 -0.28111333 47 23
3.8552608 1.1487441 -0.43238214 50 12
3.9561408 1.305909 0.0079290261 38 59
3.8442769 1.3955922 -0.22592837 41 27
3.8656456 1.1511054 -0.37714776 29 16
3.979387 1.3135926 0.065988995 63 67
3.8611979 1.400985 -0.16993326 38 34
3.8752968 1.1532444 -0.32170087 39 20
