# .PCD v0.7 - Point Cloud Data file format
VERSION 0.7
FIELDS x y z intensity ring
SIZE 4 4 4 4 2
TYPE F F F F U
COUNT 1 1 1 1 1
WIDTH 1199
HEIGHT 1
VIEWPOINT 0 0 0 1 0 0 0
POINTS 1199
DATA ascii
4.0973325 -0.1328759 -0.11279283 41 42
3.9609625 -0.36240846 -0.26109454 46 24
4.1754341 -0.01394987 -0.064306393 38 49
3.9690557 -0.36454496 -0.20629992 23 28
4.1959257 -0.014732273 -0.0065350938 43 57
4.0347424 -0.13300186 -0.39158553 43 15
4.180613 -0.014692185 0.051362853 96 65
4.0447736 -0.13403258 -0.33610386 44 19
4.0599213 -0.0030381733 -0.45847356 43 11
4.050662 -0.24226485 -0.1608291 42 35
4.0575013 -0.24267118 -0.10479052 35 43
4.1287417 -0.12593965 -0.056461055 36 50
4.1391263 -0.12624967 0.00071645767 44 58
4.1387162 -0.12623742 0.058031134 24 66
4.1420732 -0.0051931851 -0.1785596 46 33
4.1491632 -0.0051956601 -0.12135927 44 41
3.8873181 -0.36799842 -0.5678094 44 7
4.0487332 -0.14406551 -0.28006959 44 23
3.9058874 -0.36975372 -0.42159957 48 12
4.0671926 -0.14542088 -0.22481541 40 27
3.9212172 -0.37189332 -0.36822397 42 16
4.0848889 -0.14675578 -0.16909923 42 34
3.9407768 -0.37443969 -0.31489873 41 20
4.0918489 -0.14700127 -0.11265409 44 42
3.9547067 -0.37576139 -0.26076406 46 24
4.1753602 -0.028524769 -0.064306393 39 49
3.9627883 -0.37792391 -0.2060391 29 28
4.1908484 -0.029348154 -0.006527239 44 57
4.0243073 -0.1467289 -0.39061141 44 15
4.205534 -0.029437862 0.051672641 49 65
4.0393019 -0.14797156 -0.33568633 43 19
4.0499506 -0.017177543 -0.45734155 42 11
4.0398188 -0.25577539 -0.16042951 45 35
4.0466528 -0.25620535 -0.10453051 43 43
4.12328 -0.14018424 -0.056392115 38 50
4.1336632 -0.1405305 0.00071558496 45 58
4.1370344 -0.019632507 -0.17834237 49 33
4.1491199 -0.019678911 -0.12135927 49 41
3.8761628 -0.38059995 -0.5663572 28 7
4.0432215 -0.15800591 -0.27972168 39 23
3.8996255 -0.38290051 -0.42106044 47 12
4.0616717 -0.15942463 -0.22453718 30 27
3.9198949 -0.38557866 -0.36822397 41 16
4.0793595 -0.16082031 -0.16889071 40 34
3.9295259 -0.38721713 -0.31409848 40 20
4.0863161 -0.16108999 -0.11251535 35 42
3.9384756 -0.38809782 -0.25977257 48 24
4.1652365 -0.04300509 -0.064151071 41 49
4.1807213 -0.043880776 -0.0065115299 43 57
4.0187984 -0.1605801 -0.39012441 32 15
4.1904073 -0.043973751 0.051486764 41 65
4.0337825 -0.16187397 -0.3352688 37 19
4.0498657 -0.031314403 -0.45734155 41 11
4.0339165 -0.26954433 -0.16022971 46 35
4.0507216 -0.27066049 -0.10466053 42 43
4.1177697 -0.15439227 -0.056323182 36 50
4.1231542 -0.15459064 0.0007138396 45 58
4.1269498 -0.034000091 -0.17790791 45 33
4.129035 -0.03401538 -0.12076943 42 41
3.8551242 -0.39212823 -0.56345284 52 7
4.0376616 -0.17190954 -0.27937376 35 23
3.8933198 -0.39600801 -0.42052132 30 12
4.0511146 -0.1731817 -0.22398071 36 27
3.9086206 -0.3982515 -0.36728463 37 16
4.0737824 -0.17484802 -0.16868222 31 34
3.9182336 -0.39992058 -0.31329823 25 20
4.0807352 -0.17514186 -0.11237661 37 42
3.9321337 -0.40133739 -0.25944206 48 24
4.1550636 -0.057415079 -0.063995734 30 49
4.1705432 -0.058343053 -0.0064958204 42 57
4.0082698 -0.17418191 -0.38915029 23 15
4.1802301 -0.058469858 0.051362853 41 65
4.018259 -0.17531192 -0.33401623 39 19
4.0447645 -0.045399729 -0.45677552 26 11
4.0229836 -0.28292668 -0.15983015 42 35
4.0397792 -0.28410116 -0.10440049 36 43
4.1022191 -0.16816047 -0.056116357 32 50
4.1175938 -0.16878067 0.00071296701 43 58
4.1218109 -0.048351578 -0.17769068 40 33
4.1238937 -0.048374116 -0.12062197 33 41
3.8488123 -0.40506569 -0.56272674 54 7
4.0320544 -0.18577629 -0.27902582 22 23
3.8770833 -0.4080371 -0.41890392 25 12
4.0454984 -0.18709436 -0.22370248 31 27
3.8824542 -0.40928671 -0.36493629 14 16
4.0631661 -0.18861037 -0.16826519 34 34
3.9019439 -0.41202724 -0.31209785 13 20
4.0651207 -0.18869981 -0.1119604 29 42
3.9307084 -0.41506067 -0.25944206 46 24
4.1448402 -0.071754575 -0.063840412 23 49
4.1653156 -0.072817713 -0.006487966 39 57
4.0076375 -0.18817231 -0.38915029 23 15
4.1750011 -0.072978325 0.051300894 16 65
4.0176225 -0.18933721 -0.33401623 23 19
4.0445814 -0.059518311 -0.45677552 43 11
4.0169888 -0.29660189 -0.15963036 41 35
4.0966129 -0.18225995 -0.056047425 21 50
4.1119843 -0.18293375 0.0007120943 39 58
4.1066332 -0.062524624 -0.17703901 22 33
4.1236997 -0.062768891 -0.12062197 30 41
3.8424566 -0.41796377 -0.56200063 49 7
4.0214176 -0.19936234 -0.27833003 16 23
3.8706932 -0.42103127 -0.41836479 23 12
4.039834 -0.20096989 -0.22342423 19 27
3.8810017 -0.42283651 -0.36493629 13 16
4.0525041 -0.20230077 -0.1678482 26 34
3.9004822 -0.42564505 -0.31209785 13 20
4.0644374 -0.20288858 -0.1119604 22 42
3.9143567 -0.42715722 -0.25845057 42 24
4.1395655 -0.086122856 -0.063762747 18 49
4.1650362 -0.08735694 -0.006487966 25 57
4.001986 -0.201913 -0.38866326 27 15
4.1647243 -0.087350681 0.05117698 15 65
4.0119605 -0.20311154 -0.3335987 22 19
4.029448 -0.073378675 -0.45507747 38 11
4.0059662 -0.3098554 -0.15923078 31 35
4.0909576 -0.19632228 -0.055978484 14 50
4.0964017 -0.076681226 -0.17660457 28 33
4.113462 -0.076984979 -0.12032706 27 41
4.0206971 -0.2133985 -0.27833003 23 23
3.8692 -0.43453991 -0.41836479 25 12
4.0341225 -0.21480815 -0.22314598 24 27
3.8795023 -0.43638116 -0.36493629 17 16
4.0517731 -0.21644542 -0.1678482 32 34
3.8989725 -0.43925765 -0.31209785 17 20
4.058713 -0.21681154 -0.11182166 22 42
4.1342421 -0.10045521 -0.063685074 19 49
4.1497097 -0.10154169 -0.0064644017 26 57
3.9962878 -0.21561655 -0.3881762 34 15
4.1593957 -0.10176995 0.051115021 15 65
4.0112271 -0.21711467 -0.3335987 28 19
4.0291672 -0.087443627 -0.45507747 43 11
3.9998806 -0.32343629 -0.159031 38 35
4.0902476 -0.21060118 -0.055978484 15 50
4.1011024 -0.091086216 -0.17682178 36 33
4.1081715 -0.091236763 -0.1201796 27 41
4.0199275 -0.22743206 -0.27833003 32 23
3.8676593 -0.44804335 -0.41836479 31 12
4.0283642 -0.22860903 -0.22286777 34 27
3.8779554 -0.44992051 -0.36493629 28 16
4.050993 -0.23058741 -0.1678482 36 34
3.8974154 -0.45286497 -0.31209785 20 20
4.0579314 -0.23097776 -0.11182166 29 42
4.1288681 -0.11475143 -0.06360741 24 49
4.1443315 -0.11589102 -0.0064565474 31 57
3.9905429 -0.22928278 -0.38768917 37 15
4.1490183 -0.11601784 0.050991103 19 65
4.0054703 -0.23083179 -0.3331812 46 19
4.0238705 -0.10138699 -0.45451146 46 11
4.0695186 -0.2237926 -0.055702727 23 50
4.1007595 -0.10540118 -0.17682178 35 33
4.1078281 -0.1055764 -0.1201796 35 41
4.0141301 -0.24116701 -0.27798212 44 23
3.8611367 -0.4609527 -0.41782567 36 12
4.0275416 -0.24266925 -0.22286777 39 27
3.8714182 -0.46286407 -0.36446661 38 16
4.045177 -0.24442863 -0.16763969 39 34
3.8760164 -0.46409935 -0.31049734 23 20
4.0521116 -0.24484305 -0.11168294 37 42
4.123445 -0.12901136 -0.063529745 36 49
4.1389041 -0.13020404 -0.0064486926 40 57
3.984751 -0.24291152 -0.38720211 43 15
4.1435914 -0.13034725 0.050929151 24 65
3.9946933 -0.24421068 -0.33234614 45 19
4.0234923 -0.11543231 -0.45451146 48 11
4.0737038 -0.23828515 -0.055771668 23 50
4.0953736 -0.11957366 -0.17660457 42 33
4.102438 -0.11977345 -0.12003214 45 41
4.0033078 -0.25455108 -0.27728629 45 23
3.8447025 -0.47261041 -0.41620827 46 12
4.0216875 -0.25641218 -0.22258952 42 27
3.8648384 -0.47576752 -0.36399692 44 16
4.034327 -0.2579166 -0.16722266 43 34
3.8842659 -0.47884458 -0.3112976 38 20
4.0412555 -0.2583549 -0.11140545 45 42
4.1179733 -0.14323485 -0.063452087 36 49
4.1334276 -0.14448056 -0.0064408379 41 57
3.9789124 -0.2565026 -0.38671508 44 15
4.1331182 -0.14447004 0.050805233 31 65
3.9888442 -0.25783521 -0.33192861 37 19
4.013134 -0.12916586 -0.45337945 41 11
4.0849457 -0.13355114 -0.17617011 45 33
4.0920043 -0.13377544 -0.11973722 45 41
3.9974179 -0.26819313 -0.27693838 45 23
3.8380978 -0.48540503 -0.41566914 46 12
4.0108056 -0.26978549 -0.22203305 35 27
3.8631539 -0.48925543 -0.36399692 42 16
4.0284181 -0.27166462 -0.16701417 42 34
4.0353422 -0.27212694 -0.11126672 44 42
4.1174488 -0.15760837 -0.063452087 38 49
4.1279011 -0.15872045 -0.0064329826 42 57
3.9680626 -0.26972178 -0.38574097 45 15
3.9829485 -0.27142191 -0.33151111 43 19
4.0076938 -0.14300102 -0.45281342 41 11
4.0794621 -0.14763336 -0.17595288 44 33
4.0865183 -0.14788224 -0.11958976 46 41
3.9865062 -0.28144923 -0.27624255 41 23
3.8265209 -0.49751908 -0.4145909 48 12
4.004859 -0.28343502 -0.2217548 30 27
3.8564863 -0.5020954 -0.36352724 42 16
4.0224619 -0.28537455 -0.16680565 38 34
4.0343676 -0.28621128 -0.11126672 41 42
4.106883 -0.17157175 -0.06329675 42 49
4.1173306 -0.17271852 -0.006417274 42 57
3.9621334 -0.28321981 -0.38525394 37 15
3.9770069 -0.28497052 -0.33109358 37 19
4.0022058 -0.15679976 -0.45224738 40 11
4.0739307 -0.16167895 -0.17573567 38 33
4.0809827 -0.16195233 -0.1194423 36 41
3.9854991 -0.29536301 -0.27624255 34 23
3.8247609 -0.51087308 -0.4145909 48 12
3.9988668 -0.29704639 -0.22147657 37 27
3.8547103 -0.51555395 -0.36352724 40 16
4.0064945 -0.29831102 -0.16618013 37 34
4.023375 -0.29955655 -0.11098925 32 42
4.0962706 -0.18546332 -0.063141428 25 49
4.1167026 -0.18708965 -0.006417274 42 57
3.946233 -0.29594219 -0.38379279 28 15
3.9660506 -0.29811093 -0.33025855 32 19
3.996671 -0.17056195 -0.45168138 26 11
4.0683508 -0.17568773 -0.17551844 27 33
4.0753999 -0.17598563 -0.11929485 30 41
3.9794705 -0.30889052 -0.27589464 21 23
3.8278792 -0.52489555 -0.41513002 46 12
3.9878504 -0.3102355 -0.2209201 26 27
4.0004482 -0.31190944 -0.16597162 33 34
4.0856104 -0.19928282 -0.062986091 19 49
4.1060357 -0.2009787 -0.006401564 40 57
3.9451759 -0.30971527 -0.38379279 36 15
3.9600177 -0.31156576 -0.32984102 25 19
3.9861255 -0.1840629 -0.45054936 42 11
4.0577326 -0.18943116 -0.17508398 25 33
4.0597825 -0.18952498 -0.11885246 29 41
3.9684246 -0.32197952 -0.27519882 19 23
3.8112562 -0.53617859 -0.41351262 46 12
3.9817669 -0.32375255 -0.22064187 18 27
3.9943557 -0.32546932 -0.16576311 31 34
4.0798965 -0.21328664 -0.062908426 16 49
3.9440708 -0.32348466 -0.38379279 28 15
3.9539404 -0.32498211 -0.32942352 23 19
3.9804964 -0.19773416 -0.44998333 36 11
4.0470681 -0.20310262 -0.17464954 26 33
4.0590963 -0.20369509 -0.11885246 27 41
3.9672766 -0.33582994 -0.27519882 23 23
3.8142817 -0.55018824 -0.41405174 43 12
3.9756379 -0.33723092 -0.22036362 22 27
3.9832392 -0.33857071 -0.1653461 22 34
4.0791273 -0.22752683 -0.062908426 17 49
3.9330006 -0.33640859 -0.38281867 35 15
3.9478173 -0.33835983 -0.32900599 31 19
3.9797821 -0.21162747 -0.44998333 43 11
4.0463347 -0.21722828 -0.17464954 36 33
4.0533695 -0.21759944 -0.11870501 29 41
3.9611111 -0.34924158 -0.27485088 33 23
3.8025026 -0.56204683 -0.41297349 40 12
3.9694633 -0.35067049 -0.22008538 34 27
3.97208 -0.35159847 -0.16492909 41 34
4.0583448 -0.24059917 -0.062597767 23 49
3.9318023 -0.35013524 -0.38281867 37 15
3.9466121 -0.35213822 -0.32900599 37 19
3.9790194 -0.22551821 -0.44998333 45 11
4.0405641 -0.2310707 -0.17443231 35 33
4.0525851 -0.231747 -0.11870501 40 41
3.9549005 -0.36261424 -0.27450299 43 23
3.9682152 -0.36452433 -0.22008538 38 27
4.0624704 -0.25507268 -0.062675439 32 49
3.925601 -0.36340237 -0.38233164 42 15
3.9354355 -0.36499873 -0.32817093 44 19
3.9682896 -0.23881869 -0.44885129 49 11
4.0397334 -0.24517351 -0.17443231 44 33
4.0467629 -0.24559362 -0.11855755 48 41
3.9486451 -0.3759478 -0.27415505 46 23
3.9520085 -0.37696174 -0.21925066 92 27
3.9144011 -0.37615776 -0.38135755 44 15
3.929178 -0.37825969 -0.32775342 45 19
3.9624734 -0.25235805 -0.44828525 38 11
4.0338669 -0.25895792 -0.17421508 46 33
4.0309172 -0.2587713 -0.11811517 47 41
3.9373806 -0.38875541 -0.27345923 44 23
3.955637 -0.39124253 -0.21952891 83 27
3.908112 -0.3893294 -0.38087049 45 15
3.9228752 -0.39148134 -0.32733589 43 19
3.9516547 -0.26553139 -0.44715324 39 11
4.0229707 -0.27237156 -0.17378063 45 33
4.0399628 -0.27350613 -0.11841009 47 41
3.926075 -0.4014889 -0.27276343 41 23
3.9017792 -0.40246171 -0.38038346 36 15
3.9115717 -0.40415496 -0.32650086 31 19
3.9457479 -0.27897799 -0.44658723 38 11
4.0120292 -0.2857123 -0.17334618 40 33
4.0240269 -0.28655547 -0.11796771 43 41
3.9246492 -0.41519105 -0.27276343 36 23
3.875608 -0.41345662 -0.37794822 28 15
3.8952732 -0.41622841 -0.3252483 28 19
3.9348409 -0.29202357 -0.44545519 25 11
4.0010438 -0.29898 -0.17291173 40 33
3.9083002 -0.42727205 -0.27171969 30 23
3.8741412 -0.42698246 -0.37794822 36 15
3.8937964 -0.42982292 -0.3252483 29 19
3.928844 -0.30537665 -0.44488916 40 11
3.9999757 -0.31294444 -0.17291173 25 33
3.8726273 -0.44050315 -0.37794822 28 15
3.8922725 -0.44341218 -0.3252483 19 19
3.9277539 -0.31908903 -0.44488916 35 11
3.983922 -0.32569796 -0.17226005 24 33
3.8710659 -0.45401847 -0.37794822 35 15
3.885752 -0.45641816 -0.32483077 23 19
3.9167154 -0.3319678 -0.44375712 41 11
3.977783 -0.33918273 -0.17204282 64 33
3.8645167 -0.46693471 -0.37746119 37 15
3.8692946 -0.46819383 -0.32357824 24 19
3.910584 -0.34520561 -0.44319114 44 11
3.8579247 -0.4798108 -0.37697414 40 15
3.8725815 -0.48230973 -0.32399574 96 19
3.9044075 -0.35840461 -0.44262511 48 11
3.8562262 -0.49327454 -0.37697414 43 15
3.8981864 -0.37156469 -0.4420591 37 11
3.8495469 -0.50608706 -0.37648711 45 15
3.8869777 -0.38420179 -0.44092706 37 11
3.8477571 -0.51952142 -0.37648711 78 15
3.8856127 -0.39776754 -0.44092706 36 11
3.8743191 -0.41029161 -0.43979502 23 11
3.8629854 -0.42274165 -0.43866301 39 11
3.8664231 -0.43677631 -0.43922901 33 11
3.8648751 -0.45026994 -0.43922901 39 11
3.8583467 -0.46317083 -0.43866301 42 11
3.8419139 -0.47482243 -0.43696493 37 11
3.835304 -0.48760852 -0.43639892 53 11
3.8237255 -0.49971536 -0.43526691 61 11
3.8170335 -0.51240337 -0.43470088 67 11
3.8004553 -0.52370411 -0.4330028 78 11
4.2314653 0.3204385 -0.24924256 43 26
4.2275796 0.30531088 -0.24894692 49 26
4.2147927 0.2896142 -0.30686992 43 22
4.22364 0.29021424 -0.24865125 43 26
4.2008491 0.27393991 -0.30577394 49 22
4.219646 0.2751489 -0.24835558 43 26
4.2017794 0.25927451 -0.30577394 45 22
4.2155986 0.26011488 -0.24805991 43 26
4.2486081 0.26137799 -0.19092256 40 32
4.1632009 0.24307375 -0.36025378 41 18
4.1877232 0.24375007 -0.30467799 43 22
4.2114978 0.24511258 -0.24776427 42 26
4.2445083 0.24626108 -0.19069661 42 32
4.1640239 0.22853997 -0.36025378 20 18
4.183569 0.22886276 -0.30431268 41 22
4.2073436 0.23014203 -0.24746861 40 26
4.2303786 0.23064095 -0.19001879 40 32
4.1548462 0.21350111 -0.35938567 17 18
4.1743822 0.21375686 -0.30358201 39 22
4.2031369 0.21520345 -0.24717294 27 26
4.2311578 0.21587278 -0.19001879 26 32
4.1301694 0.19852591 -0.41563708 12 14
4.1555667 0.19899669 -0.35938567 17 18
4.1651406 0.19871794 -0.30285138 28 22
4.1988764 0.20029709 -0.24687727 13 26
4.2268963 0.20086928 -0.18979284 17 32
4.1258674 0.18389075 -0.41513267 50 14
4.1512594 0.18427345 -0.35895163 20 18
4.1658087 0.18417765 -0.30285138 25 22
4.1895766 0.18520708 -0.24628596 14 26
4.2126007 0.18546765 -0.18911502 14 32
4.2248502 0.18525726 -0.13103691 42 40
4.1215143 0.16928801 -0.4146283 49 14
4.141923 0.16938366 -0.35808358 23 18
4.1614432 0.16943677 -0.30248606 32 22
4.1852102 0.17038305 -0.24599029 23 26
4.2082314 0.17056397 -0.18888907 17 32
4.2254705 0.17050867 -0.13103691 47 40
4.1171088 0.15471795 -0.41412386 49 14
4.1424894 0.15492463 -0.35808358 29 18
4.1570263 0.15472859 -0.30212072 42 22
4.18578 0.15577291 -0.24599029 30 26
4.2038097 0.15569304 -0.18866311 28 32
4.2160516 0.1553987 -0.13072455 43 40
4.2422204 0.27924797 -0.19805409 36 31
4.1126518 0.14018068 -0.41361943 48 14
4.1380262 0.14029941 -0.35764951 45 18
4.1525569 0.14005335 -0.30175543 43 22
4.1813092 0.1409971 -0.24569464 38 26
4.2043276 0.14101805 -0.18866311 32 32
4.2115731 0.14051877 -0.13056836 43 40
4.2431688 0.26443815 -0.19805409 46 31
4.1081438 0.12567641 -0.41311499 43 14
4.1285334 0.12556036 -0.35678145 42 18
4.1430516 0.12526496 -0.30102476 42 22
4.1717982 0.1261081 -0.24510331 43 26
4.194809 0.12605022 -0.18821123 45 32
4.2070422 0.125672 -0.13041218 42 40
4.2334418 0.12643708 -0.072567761 41 48
4.2340946 0.2490449 -0.19758478 48 31
4.1035843 0.11120532 -0.41261059 41 14
4.1239667 0.11101878 -0.35634741 35 18
4.1384783 0.11067344 -0.30065945 42 22
4.167223 0.11141612 -0.24480766 40 26
4.1902294 0.11127871 -0.18798529 39 32
4.2024603 0.1108586 -0.130256 43 40
4.2288599 0.11153147 -0.072481371 42 48
4.2349381 0.23426363 -0.19758478 43 31
4.0989747 0.096767619 -0.41210622 27 14
4.1143694 0.096398488 -0.3554793 14 18
4.1338544 0.096115403 -0.30029416 41 22
4.1576066 0.09664613 -0.24421635 39 26
4.1855989 0.096540675 -0.18775934 32 32
4.1978254 0.096078709 -0.13009982 42 40
4.2192278 0.096549451 -0.072308592 27 48
4.2257538 0.2189689 -0.19711544 34 31
4.2246623 0.33410203 -0.26361534 87 25
4.0893402 0.08226794 -0.41109735 22 14
4.1097002 0.081941321 -0.35504526 17 18
4.129179 0.08159098 -0.29992881 33 22
4.1579189 0.082132787 -0.24421635 29 26
4.1809168 0.081836358 -0.18753341 25 32
4.1881413 0.081240073 -0.12978745 40 40
4.2145405 0.081728533 -0.072222203 30 48
4.2351522 0.081370458 -0.013928291 56 56
4.2264919 0.20421694 -0.19711544 14 31
4.2307792 0.31972736 -0.26392838 52 25
4.0846281 0.067914829 -0.41059291 27 14
4.1049809 0.067517929 -0.35461125 17 18
4.1194668 0.067023791 -0.29919815 28 22
4.143208 0.067388467 -0.24332935 13 26
4.1711884 0.067090057 -0.18708152 14 32
4.1883993 0.066620231 -0.12978745 39 40
4.2148004 0.067016535 -0.072222203 14 48
4.2354107 0.066586524 -0.013928291 39 56
4.2221899 0.18924202 -0.19688077 14 31
4.2395053 0.19000712 -0.13884951 52 39
4.2219148 0.30424368 -0.26330224 53 25
4.0798669 0.05359564 -0.41008854 34 14
4.1051922 0.053188458 -0.35461125 20 18
4.1196756 0.052643761 -0.29919815 28 22
4.1384273 0.052866325 -0.24303371 20 26
4.1614079 0.05241267 -0.18662964 14 32
4.1786122 0.051884446 -0.12947509 37 40
4.2050109 0.052188557 -0.072049424 14 48
4.2206182 0.051631611 -0.013878548 42 56
4.2128444 0.17409657 -0.19641146 17 31
4.2301564 0.17480098 -0.13851969 42 39
4.2179718 0.28916514 -0.26298916 44 25
4.080029 0.039353922 -0.41008854 48 14
4.1003714 0.038815737 -0.35417721 23 18
4.1148477 0.038221315 -0.29883283 35 22
4.1335955 0.03837838 -0.24273804 25 26
4.1615658 0.037886322 -0.18662964 31 32
4.1687727 0.037217803 -0.12916271 39 40
4.195169 0.037429735 -0.071876645 14 48
4.2207732 0.036898587 -0.013878548 34 56
4.1984534 0.15883307 -0.19570749 25 31
4.2257471 0.15984818 -0.13835479 41 39
4.1849871 0.27297676 -0.31919327 51 21
4.2189555 0.2744399 -0.26298916 46 25
4.0751667 0.025085669 -0.40958413 43 14
4.2371631 0.27561736 -0.20516758 43 30
4.0955009 0.02447732 -0.35374314 40 18
4.1099696 0.02383321 -0.29846755 45 22
4.1337047 0.023949204 -0.24273804 31 26
4.1566777 0.023335978 -0.18640369 30 32
4.1688771 0.022665847 -0.12916271 32 40
4.1902742 0.022762949 -0.071790248 20 48
4.210876 0.022121483 -0.013845384 41 56
4.2256613 0.022186002 0.044608027 48 64
4.1989822 0.14417675 -0.19570749 32 31
4.21629 0.14476 -0.13802499 43 39
4.0994267 0.14010563 -0.48841304 43 10
4.2280955 0.13629289 -0.07980182 43 47
4.1908898 0.25867197 -0.31957597 34 21
4.2149072 0.25940672 -0.26267606 45 25
4.0652804 0.010843165 -0.40857527 43 14
4.2331152 0.26052034 -0.20492421 42 30
4.0905795 0.01017338 -0.35330909 45 18
4.1050415 0.0094796307 -0.2981022 47 22
4.1237803 0.0095057972 -0.2421467 40 26
4.1467433 0.0088141188 -0.1859518 38 32
4.158936 0.0081031444 -0.12885036 42 40
4.1853294 0.0081307869 -0.071703866 25 48
4.2059278 0.0074182856 -0.013828804 41 56
4.2107139 0.007422463 0.044448327 45 64
4.19946 0.1295187 -0.19570749 41 31
4.2117748 0.12989065 -0.13786007 43 39
4.0949287 0.12564613 -0.48781666 28 10
4.2235494 0.12139282 -0.079706714 46 47
4.1768365 0.24317795 -0.3184278 42 21
4.2108054 0.24440514 -0.26236302 41 25
4.0652933 -0.0033479433 -0.40857527 43 14
4.2240267 0.24516748 -0.20443745 41 30
4.0806289 -0.004086914 -0.35244104 42 18
4.0950756 -0.0048293774 -0.29737154 42 22
4.1187968 -0.0048790588 -0.24185103 42 26
4.1417546 -0.0056500155 -0.18572587 43 32
4.1489439 -0.006390457 -0.12853798 42 40
4.1853328 -0.0064793723 -0.071703866 30 48
4.2009277 -0.0072506815 -0.013812223 42 56
4.2107139 -0.0072763013 0.044448327 41 64
4.1899009 0.11459234 -0.19523816 43 31
4.2072072 0.11505459 -0.13769518 43 39
4.0903802 0.11121971 -0.48722035 23 10
4.223947 0.10664913 -0.079706714 39 47
4.1826382 0.22886704 -0.31881055 40 21
4.2016668 0.22916545 -0.26173681 37 25
4.0602832 -0.017512402 -0.40807089 39 14
4.2198701 0.2301513 -0.20419407 40 30
4.0805898 -0.018330943 -0.35244104 39 18
4.0900474 -0.01909598 -0.29700625 42 22
4.1087723 -0.01920056 -0.24125972 40 26
4.1367149 -0.020078633 -0.18549992 41 32
4.1438994 -0.02084328 -0.12838182 41 40
4.1630702 0.22416025 -0.37540445 34 17
4.1752858 -0.021029536 -0.07153108 39 48
4.1908765 -0.021853523 -0.013779059 42 56
4.1956635 -0.021882765 0.044288635 40 64
4.1852818 0.099850215 -0.19500349 40 31
4.1975913 0.100136 -0.13736537 42 39
4.0857806 0.096826591 -0.48662397 23 10
4.2092996 0.091587454 -0.079421356 37 47
4.1784325 0.21401244 -0.3184278 28 21
4.1974568 0.21424499 -0.26142374 32 25
4.0502481 -0.031598508 -0.40706205 24 14
4.2156601 0.21516714 -0.2039507 34 30
4.070539 -0.03248607 -0.35157293 20 18
4.2331066 0.21531022 -0.1460195 40 38
4.0849695 -0.033327539 -0.29664093 41 22
4.1086802 -0.033542737 -0.24125972 37 26
4.1316242 -0.034472134 -0.18527396 28 32
4.1388035 -0.035260957 -0.12822564 31 40
4.1538801 0.20913015 -0.37449983 17 17
4.1651888 -0.035509642 -0.071358308 29 48
4.1857758 -0.036434289 -0.013762479 42 56
4.1905627 -0.036480237 0.044235401 38 64
4.1806116 0.085141763 -0.19476885 28 31
4.1929188 0.085384518 -0.13720046 39 39
4.0860934 0.082563959 -0.48662397 28 10
4.214592 0.07698182 -0.079516478 14 47
4.1691947 0.19895427 -0.31766239 35 21
4.235291 0.077346742 -0.021258608 43 55
4.1931953 0.19935679 -0.26111066 41 25
4.0501137 -0.045736317 -0.40706205 24 14
4.2113972 0.20021519 -0.20370732 13 30
4.0654197 -0.046632983 -0.35113892 20 18
4.2238488 0.20006353 -0.14567223 43 38
4.0798416 -0.047523871 -0.29627559 39 22
4.0935655 -0.047696337 -0.24037275 17 26
4.1065068 -0.0485758 -0.18414424 30 32
4.1236634 -0.049514227 -0.12775707 40 40
4.1545854 0.19462912 -0.37449983 20 17
4.1550422 -0.049919516 -0.071185522 14 48
4.1706238 -0.050848801 -0.013712734 41 56
4.1804109 -0.050976921 0.044128943 13 64
4.175889 0.070467122 -0.19453418 14 31
4.2093611 -0.052825488 0.10273279 43 70
4.183198 0.070585772 -0.13687067 43 39
4.0813932 0.068220623 -0.4860276 41 10
4.2098365 0.062199004 -0.079421356 14 47
4.1698642 0.18439986 -0.31766239 20 21
4.230536 0.062491655 -0.021233298 46 55
4.1838946 0.18428326 -0.26048449 21 25
4.0350075 -0.059639167 -0.40554881 27 14
4.2020917 0.18507776 -0.20322056 14 30
4.0602517 -0.060744554 -0.35070488 20 18
4.2245212 0.18531834 -0.14567223 38 38
4.0696793 -0.061604757 -0.29554498 21 22
4.0883837 -0.06190512 -0.24007708 14 26
4.0963235 -0.062747747 -0.18369237 13 32
4.1148057 0.17910814 -0.42837736 54 13
4.1184692 -0.063826226 -0.12760091 37 40
4.1452894 0.17969829 -0.37359527 33 17
4.1448455 -0.064259 -0.071012743 17 48
4.1654229 -0.0653238 -0.013696154 41 56
4.175209 -0.065486073 0.044075709 14 64
4.166122 0.05576285 -0.19406484 17 31
4.1791649 -0.067010865 0.1019946 39 70
4.1834192 0.055983249 -0.13687067 36 39
4.0716786 0.053848717 -0.48483494 30 10
4.2050285 0.04745033 -0.07932625 14 47
4.1605191 0.16944128 -0.31689692 29 21
4.2207294 0.047617495 -0.021182684 42 55
4.1845121 0.1696776 -0.26048449 30 25
4.0347748 -0.073723607 -0.40554881 35 14
4.1927323 0.17000774 -0.20273381 17 30
4.0550346 -0.0748206 -0.35027081 28 18
4.215157 0.17017154 -0.14532499 49 38
4.0644541 -0.07571274 -0.29517964 30 22
4.0831523 -0.076078296 -0.23978141 23 26
4.1060677 -0.077243209 -0.18414424 20 32
4.1104364 0.16454673 -0.42785558 43 13
4.1132245 -0.078102536 -0.12744471 36 40
4.1409159 0.16503108 -0.37314296 33 17
4.1445961 -0.078726813 -0.071012743 14 48
4.1601701 -0.079763085 -0.013679572 41 56
4.1699557 -0.079959519 0.044022478 14 64
4.1612968 0.041173834 -0.19383019 23 31
4.1839027 -0.081700534 0.10211764 38 70
4.173595 0.041287601 -0.13654085 29 39
4.0718412 0.03963558 -0.48483494 32 10
4.1951704 0.032700203 -0.079136014 17 47
4.1561031 0.15473376 -0.31651416 33 21
4.2158694 0.032848328 -0.021157376 39 55
4.1800923 0.15488705 -0.26017141 42 25
4.034493 -0.087807149 -0.40554881 46 14
4.1933002 0.15537135 -0.20273381 25 30
4.0497689 -0.088860981 -0.34983677 23 18
4.2107315 0.15527464 -0.14515136 49 38
4.0591798 -0.089785002 -0.29481432 34 22
4.0828619 -0.090330705 -0.23978141 28 26
4.1007795 -0.091459647 -0.1839183 29 32
4.1109862 0.15019764 -0.42785558 43 13
4.112927 -0.092459895 -0.12744471 43 40
4.1414666 0.15057556 -0.37314296 45 17
4.139298 -0.093076751 -0.070926353 17 48
4.149869 -0.094048694 -0.013646409 31 56
4.1646533 -0.094397113 0.043969247 18 64
4.1564212 0.026619181 -0.19359553 31 31
4.1835923 -0.096304588 0.10211764 20 70
4.168716 0.026689997 -0.13637593 39 39
4.2375154 0.15106826 -0.087329708 12 46
4.0719552 0.02542196 -0.48483494 38 10
4.2268863 0.27461931 -0.21201092 32 29
4.1852612 0.018019481 -0.078945786 23 47
4.1516356 0.14005917 -0.31613147 43 21
4.2059588 0.018095344 -0.021106761 47 55
4.1756201 0.1401294 -0.25985834 38 25
4.0291891 -0.1017594 -0.40504441 44 14
4.22085 0.017413236 0.037250943 47 63
4.1888256 0.14056748 -0.20249043 30 30
4.0444555 -0.10286553 -0.34940276 43 18
4.206254 0.14041069 -0.14497773 49 38
4.0588417 -0.10395363 -0.29481432 46 22
4.0775328 -0.10444961 -0.23948574 31 26
4.1004353 -0.10577348 -0.1839183 33 32
4.1015449 0.13552214 -0.42681199 40 13
4.1075835 -0.10668182 -0.12728854 38 40
4.1320133 0.13579497 -0.37223834 46 17
4.1339507 -0.10739069 -0.070839964 23 48
4.1445174 -0.10839864 -0.013629829 40 56
4.1593008 -0.10879866 0.043916017 20 64
4.151494 0.012099069 -0.19336087 36 31
4.1832309 -0.11090745 0.10211764 25 70
4.1637874 0.012126963 -0.13621104 43 39
4.228024 0.13595809 -0.087122023 46 46
4.0620904 0.011187233 -0.48364219 46 10
4.2328038 0.26016876 -0.21226302 38 29
4.1803002 0.0034092092 -0.078850672 29 47
4.1371498 0.1251201 -0.31498328 43 21
4.2009969 0.0034128244 -0.021081453 44 55
4.1661077 0.12525684 -0.25923216 40 25
4.0188646 -0.11552813 -0.4040356 43 14
4.2058854 0.0026790272 0.037117425 40 63
4.1793075 0.12564859 -0.20200369 34 30
4.0440717 -0.11698268 -0.34940276 44 18
4.2017236 0.12557991 -0.14480412 49 38
4.0484853 -0.11782166 -0.29408368 45 22
4.0721545 -0.1185324 -0.2391901 42 26
4.0875645 0.12078358 -0.50844991 9 9
4.0950484 -0.11993524 -0.18369237 43 32
4.1069636 0.12134918 -0.4273338 48 13
4.0971951 -0.12071582 -0.12697618 42 40
4.1274848 0.12122649 -0.37178609 43 17
4.1235561 -0.12151661 -0.070667177 25 48
4.1391158 -0.12271234 -0.013613247 41 56
4.1489 -0.12301129 0.043809552 25 64
4.1465158 -0.0023868987 -0.1931262 46 31
4.1488113 -0.0023897034 -0.13571632 43 39
4.2284722 0.12119871 -0.087122023 38 46
4.0521765 -0.00297888 -0.48244953 45 10
4.2237148 0.24481529 -0.21175882 37 29
4.1802864 -0.011183362 -0.078850672 40 47
4.1375613 0.11067798 -0.31498328 39 21
4.1909828 -0.011218834 -0.021030836 45 55
4.1665196 0.11071364 -0.25923216 40 25
4.0134649 -0.12939095 -0.40353116 42 14
4.2058692 -0.012002268 0.037117425 42 63
4.1797204 0.11105932 -0.20200369 43 30
4.0336814 -0.13076636 -0.34853467 40 18
4.1971407 0.11078244 -0.14463049 45 38
4.0380812 -0.13161863 -0.29335302 42 22
4.061739 -0.13241169 -0.23859876 41 26
4.0780416 0.10626005 -0.50720519 32 9
4.084621 -0.13389245 -0.18324047 43 32
4.1023908 0.1068849 -0.42681199 45 13
4.091754 -0.13484778 -0.12681998 42 40
4.1229043 0.10669127 -0.37133378 41 17
4.123107 -0.13590975 -0.070667177 29 48
4.1336651 -0.13698965 -0.013596665 41 56
4.1634359 -0.13800327 0.043969247 28 64
4.1414886 -0.016837392 -0.19289155 42 31
4.1437812 -0.016848199 -0.13555142 45 39
4.2238731 0.10631398 -0.087018192 42 46
4.0521417 -0.017123597 -0.48244953 40 10
4.224544 0.23007028 -0.21175882 42 29
4.2520614 0.23156539 -0.15334643 42 37
4.1752229 -0.02574119 -0.078755558 40 47
4.1329389 0.096120566 -0.31460059 39 21
4.1859183 -0.025813995 -0.02100553 50 55
4.1569033 0.095942684 -0.25860602 36 25
4.0080175 -0.14321747 -0.40302673 35 14
4.1908026 -0.026578702 0.036983907 41 63
4.1651039 0.096128777 -0.20127353 33 30
4.0232453 -0.14447896 -0.34766659 17 18
4.1925063 0.096018523 -0.14445686 41 38
4.0375972 -0.14571337 -0.29335302 42 22
4.0562639 -0.14640437 -0.2383031 39 26
4.0833483 0.092134334 -0.50782752 17 9
4.0791368 -0.14796396 -0.18301451 40 32
4.0977683 0.092454031 -0.42629027 35 13
4.0812697 -0.14875659 -0.12650762 42 40
4.1132951 0.092080005 -0.37042919 17 17
4.1126156 -0.14992791 -0.070494398 27 48
4.1231685 -0.15104283 -0.013563502 42 56
4.137948 -0.15159769 0.04370309 37 64
4.1314154 -0.03121184 -0.19242223 38 31
4.1337028 -0.031230601 -0.13522162 42 39
4.2042274 0.091143534 -0.086602829 17 46
4.0470929 -0.031226518 -0.48185316 23 10
4.2203341 0.21506894 -0.21150671 37 29
4.2378736 0.21596052 -0.15280202 42 37
4.1651101 -0.040212329 -0.078565329 20 47
4.12328 0.08150018 -0.31383511 28 21
4.1808033 -0.040373936 -0.020980222 42 55
4.1522231 0.081335999 -0.25829291 30 25
4.0025229 -0.15700758 -0.40252233 25 14
4.1906838 -0.041207172 0.036983907 37 63
4.1654139 0.081589274 -0.20127353 14 30
4.0127616 -0.15812027 -0.34679851 17 18
4.1828237 0.081193246 -0.14410962 39 38
4.0270991 -0.15940259 -0.29262239 42 22
4.0507407 -0.16036041 -0.23800746 36 26
4.0836444 0.077880234 -0.50782752 25 9
4.068614 -0.16179579 -0.18256265 27 32
4.0930939 0.078056723 -0.42576849 34 13
4.0757332 -0.16279794 -0.12635145 41 40
4.108613 0.077629238 -0.36997688 25 17
4.0970826 -0.16367036 -0.07023523 25 48
4.1176205 -0.16522947 -0.013546922 41 56
4.1473846 -0.16645093 0.043809552 39 64
4.1312814 -0.045632981 -0.19242223 17 31
4.1335683 -0.045659728 -0.13522162 41 39
4.2045197 0.076467484 -0.086602829 13 46
4.041995 -0.0452944 -0.48125678 23 10
4.2203197 0.076748788 -0.028486758 41 54
4.2160711 0.20009983 -0.21125464 13 29
4.2386012 0.20116627 -0.15280202 41 37
4.1499481 -0.054544244 -0.078279972 14 47
4.1235399 0.067106746 -0.31383511 17 21
4.1656389 -0.054760601 -0.020904299 40 55
4.1425023 0.06668476 -0.25766674 21 25
3.9969807 -0.17076103 -0.40201792 22 14
4.1755171 -0.055625714 0.036850393 14 63
4.1556869 0.066891879 -0.20078678 14 30
4.0072093 -0.17190833 -0.34636447 20 18
4.1780853 0.066514358 -0.14393598 43 38
4.0215359 -0.17323957 -0.29225707 32 22
4.0401831 -0.17406026 -0.23741612 14 26
4.0541282 0.063173197 -0.50409347 30 9
4.058044 -0.17555593 -0.18211074 17 32
4.0833964 0.063617662 -0.42472491 30 13
4.0701475 -0.17680246 -0.12619527 31 40
4.1038804 0.06321229 -0.3695246 23 17
4.0914917 -0.17774931 -0.070148841 14 48
4.1120238 -0.17937918 -0.01353034 41 56
4.1061273 -0.059674386 -0.19124891 17 31
4.1233907 -0.059936538 -0.13489179 36 39
4.2047615 0.061790504 -0.086602829 13 46
4.0368481 -0.05932707 -0.48066044 25 10
4.2155623 0.061945099 -0.028452722 38 54
4.2167439 0.18538177 -0.21125464 13 29
4.2292938 0.18593191 -0.15243906 40 37
4.2207317 0.30793279 -0.27795002 49 24
4.1447344 -0.068943568 -0.078184865 17 47
4.1187634 0.052650716 -0.31345236 23 21
4.165422 -0.069301069 -0.020904299 45 55
4.1377206 0.052163366 -0.25735369 23 25
3.9864223 -0.1842434 -0.40100908 31 14
4.1702976 -0.070113383 0.036805887 14 63
4.1509008 0.052324403 -0.2005434 17 30
4.0065846 -0.18589506 -0.34636447 20 18
4.1732955 0.051869534 -0.14376235 44 38
4.0159259 -0.18703964 -0.29189175 20 22
4.0345654 -0.18792519 -0.23712045 14 26
4.0692062 0.049195308 -0.50596052 36 9
4.0474286 -0.18924429 -0.18165886 14 32
4.0835938 0.049363565 -0.42472491 35 13
4.0595212 -0.19053102 -0.12588289 33 40
4.0990968 0.048829332 -0.36907232 28 17
4.0858526 -0.19179119 -0.070062451 13 48
4.1013837 -0.19325194 -0.013497177 39 56
4.0909133 -0.073727295 -0.19054493 23 31
4.1131635 -0.074142858 -0.134562 29 39
4.1999526 0.047058672 -0.086498991 14 46
4.0316539 -0.073324382 -0.48006412 29 10
4.2107534 0.047175553 -0.028418688 39 54
4.2023964 0.17005761 -0.21049835 14 29
4.2199316 0.17076495 -0.15207611 38 37
4.226758 0.29354414 -0.27828053 50 24
4.1394706 -0.083307154 -0.078089751 17 47
4.1139369 0.038228855 -0.31306964 29 21
4.1551571 -0.083632998 -0.020853681 42 55
4.1278973 0.037632611 -0.25672752 30 25
3.9907229 -0.19840917 -0.40151352 35 14
4.1650295 -0.084565319 0.036761384 14 63
4.1460648 0.037791159 -0.20030002 23 30
4.0009365 -0.19962662 -0.34593043 17 18
4.1684537 0.03725896 -0.14358872 38 38
4.0102687 -0.20080268 -0.29152644 31 22
4.033885 -0.20200729 -0.23712045 20 26
4.0693536 0.034990828 -0.50596052 49 9
4.0467434 -0.2033713 -0.18165886 23 32
4.0837417 0.035108857 -0.42472491 49 13
4.0588317 -0.20470025 -0.12588289 35 40
4.0942626 0.034480538 -0.36862001 32 17
4.0801654 -0.2057959 -0.069976054 14 48
4.0956912 -0.20730996 -0.013480597 37 56
4.1006179 -0.088228181 -0.19101425 28 31
4.1128798 -0.088500023 -0.134562 33 39
4.1850948 0.032287885 -0.086187474 14 46
4.0264101 -0.08728613 -0.47946775 43 10
4.2058926 0.032440346 -0.028384656 31 54
4.2258816 0.03258688 0.029982755 12 62
4.2029643 0.15538748 -0.21049835 20 29
4.2155085 0.15584964 -0.15189464 47 37
4.212822 0.27780145 -0.277289 42 24
4.2363043 0.27786776 -0.21986198 48 28
4.1341567 -0.097634822 -0.07799463 22 47
4.1090608 0.023841329 -0.31268695 40 21
4.1448436 -0.097894132 -0.020803068 31 55
4.1280031 0.023223331 -0.25672752 36 25
3.985039 -0.21206915 -0.40100908 40 14
4.1597104 -0.098981306 0.036716878 20 63
4.1411772 0.023292311 -0.20005666 29 30
4.0002155 -0.21359129 -0.34593043 23 18
4.1635623 0.022682823 -0.14341511 49 38
4.0095429 -0.21479991 -0.29152644 43 22
4.2325344 0.14686134 -0.094554536 49 45
4.0231881 -0.21554366 -0.23652914 28 26
4.0644894 0.020762542 -0.50533819 44 9
4.0460086 -0.21749583 -0.18165886 28 32
4.073894 0.020806862 -0.42368138 43 13
4.0481124 -0.21831948 -0.12557054 30 40
4.0893784 0.020166088 -0.3681677 43 17
4.079422 -0.22003707 -0.069976054 14 48
4.1002846 -0.10254147 -0.19101425 31 31
4.112546 -0.10285611 -0.134562 37 39
4.1801829 0.017659785 -0.086083628 20 46
4.0260806 -0.10134039 -0.47946775 33 10
4.2009797 0.017739642 -0.028350621 41 54
4.2209692 0.0178164 0.029946975 42 62
4.1984911 0.14054905 -0.21024626 25 29
4.2110329 0.14096729 -0.15171316 43 37
4.1796498 0.2609598 -0.33330449 55 20
4.2137661 0.26309428 -0.277289 45 24
4.2372484 0.2630786 -0.21986198 42 28
4.1337905 -0.11206513 -0.07799463 23 47
4.1041331 0.0094883163 -0.3123042 47 21
4.1444759 -0.11236174 -0.020803068 41 55
4.1230693 0.0088050589 -0.25641441 49 25
3.9743419 -0.22540554 -0.40000024 44 14
4.1543422 -0.1133612 0.036672372 25 63
4.1362391 0.0088280467 -0.19981328 31 30
3.9894998 -0.22697814 -0.34506235 45 18
4.1486249 0.0081255911 -0.14289422 50 38
4.0037904 -0.22850573 -0.29116109 43 22
4.2230287 0.13177559 -0.094329409 38 45
4.0224109 -0.2295859 -0.23652914 32 26
4.059576 0.0065686386 -0.50471586 34 9
4.0402379 -0.23132755 -0.18143292 33 32
4.0689688 0.0065801153 -0.4231596 43 13
4.0423365 -0.23215751 -0.12541434 42 40
4.0844445 0.0058861533 -0.36771542 44 17
4.0736389 -0.23398434 -0.069889672 17 48
4.0949092 -0.11670796 -0.1907796 39 31
4.1021714 -0.11691968 -0.13423218 44 39
4.17522 0.0030663703 -0.085979789 23 46
4.02074 -0.11524787 -0.47887138 35 10
4.1960168 0.0030736327 -0.028316585 43 54
4.2060065 0.003077121 0.029839639 40 62
4.193964 0.12574369 -0.20999417 33 29
4.2065043 0.12611808 -0.15153168 43 37
4.1855102 0.24666236 -0.33370465 43 20
4.2096786 0.24808976 -0.27695855 50 24
4.2281723 0.24770097 -0.21934037 42 28
4.1233807 -0.12618177 -0.077804394 36 47
4.0941701 -0.0048227487 -0.31153873 44 21
4.139061 -0.12667179 -0.020777758 43 55
4.1130948 -0.005570347 -0.25578827 42 25
3.9735308 -0.23927723 -0.40000024 46 14
4.1489234 -0.12770481 0.036627866 31 63
4.1312509 -0.0056020352 -0.1995699 42 30
3.9837117 -0.24059775 -0.3446283 43 18
4.143631 -0.0063468455 -0.14272061 49 38
3.9979913 -0.24217401 -0.29079577 43 22
4.2234631 0.11703368 -0.094329409 38 45
4.016603 -0.24331889 -0.23623347 44 26
4.0546126 -0.0075912746 -0.50409347 43 9
4.0344205 -0.24512166 -0.18120697 47 32
4.0639939 -0.0076125599 -0.42263782 43 13
4.0365133 -0.24595791 -0.12525816 42 40
4.0794611 -0.0083596557 -0.36726314 43 17
4.0678072 -0.24789387 -0.069803283 20 48
4.0894852 -0.13083817 -0.19054493 44 31
4.0967436 -0.13107516 -0.13406728 42 39
4.1752052 -0.011508467 -0.085979789 23 46
4.0103903 -0.12895647 -0.47767872 46 10
4.1910019 -0.011558094 -0.028282551 45 54
4.2059917 -0.011605185 0.029839639 40 62
4.1893854 0.11097165 -0.20974207 43 29
4.1969299 0.11117053 -0.15116873 43 37
4.1714163 0.23122126 -0.33250424 29 20
4.2055368 0.23311695 -0.27662805 42 24
4.2290111 0.23294041 -0.21934037 40 28
4.1179194 -0.14040069 -0.077709287 41 47
4.0941286 -0.019114042 -0.31153873 46 21
4.1335969 -0.14094542 -0.02075245 50 55
4.1080599 -0.019901561 -0.25547519 40 25
3.9627433 -0.25250396 -0.39899144 46 14
4.143456 -0.142012 0.036583364 37 63
4.1212182 -0.019970456 -0.19908313 41 30
3.9778767 -0.25417975 -0.34419426 39 18
4.1335897 -0.020756707 -0.14237335 42 38
3.9871693 -0.25548103 -0.29006514 43 22
4.2188487 0.10216994 -0.094216846 38 45
4.0057678 -0.25669026 -0.23564215 41 26
4.0496016 -0.021715898 -0.5034712 20 9
4.2297697 0.10169438 -0.035876263 12 53
4.0285568 -0.25887802 -0.18098104 42 32
4.0639429 -0.021798501 -0.42263782 35 13
4.0306435 -0.2597205 -0.12510198 42 40
4.0794072 -0.02259958 -0.36726314 33 17
4.0669174 -0.26209167 -0.069803283 25 48
4.0935497 0.09700685 -0.5451324 43 8
4.079021 -0.14475153 -0.19007561 42 31
4.0912671 -0.14519416 -0.13390237 43 39
4.165143 -0.02601628 -0.085772112 34 46
4.0049548 -0.14277437 -0.47708234 41 10
4.1859369 -0.026154192 -0.028248519 43 54
4.1909261 -0.026187284 0.0297323 40 62
4.1847548 0.096233137 -0.20948997 38 29
4.2050977 -0.027015235 0.088057533 43 69
4.1922965 0.096405596 -0.15098725 43 37
4.1571789 0.21660456 -0.3893593 40 16
4.177176 0.21691801 -0.33290437 13 20
4.2013431 0.2181761 -0.27629754 39 24
4.214839 0.21740347 -0.21855795 40 28
4.2374754 0.2178324 -0.16087902 42 36
4.1074133 -0.15439197 -0.077519052 35 47
4.079082 -0.033277199 -0.31039056 33 21
4.1230865 -0.15499134 -0.020701833 43 55
4.1029754 -0.034197699 -0.25516209 36 25
3.9568746 -0.26599663 -0.398487 36 14
4.137939 -0.15628256 0.036538858 42 63
4.1211233 -0.034356073 -0.19908313 36 30
3.967026 -0.26738426 -0.34332618 20 18
4.1284952 -0.035141021 -0.14219972 42 38
3.9812779 -0.26905638 -0.28969982 42 22
4.2041864 0.087133959 -0.093879148 13 45
3.9998679 -0.27033022 -0.2353465 39 26
4.0445395 -0.035805617 -0.50284886 17 9
4.2251005 0.086827017 -0.035833504 46 53
4.022645 -0.27259639 -0.18075509 40 32
4.0538974 -0.035892185 -0.42159429 29 13
4.0297122 -0.27378848 -0.12510198 42 40
4.0643654 -0.036698438 -0.36590627 17 17
4.0790005 0.082418732 -0.54313558 46 8
4.0784907 -0.15898907 -0.19007561 36 31
4.085742 -0.15927652 -0.13373747 39 39
4.1650262 -0.040555183 -0.085772112 28 46
4.0044317 -0.15675339 -0.47708234 23 10
4.1758204 -0.040664453 -0.028180448 42 54
4.1908088 -0.040816188 0.0297323 39 62
4.1750803 0.08143156 -0.20898579 14 29
4.2049785 -0.041693602 0.088057533 43 69
4.1926079 0.081771165 -0.15098725 42 37
4.1429944 0.20136507 -0.3879503 20 16
4.1679516 0.20185217 -0.33210415 14 20
4.1921124 0.2030254 -0.27563655 34 24
4.2155724 0.20268962 -0.21855795 28 28
4.2332196 0.20279981 -0.16068795 43 36
4.0968599 -0.16831164 -0.077328824 14 47
4.0789409 -0.047515653 -0.31039056 23 21
4.1175251 -0.16917416 -0.020676527 41 55
4.0928516 -0.048397616 -0.25453594 31 25
3.9509602 -0.2794514 -0.3979826 27 14
4.1323724 -0.17051634 0.036494352 39 63
4.1010032 -0.048497207 -0.19810961 13 30
3.9611003 -0.28087309 -0.34289214 17 18
4.1233506 -0.04949002 -0.14202608 43 38
3.9753408 -0.28259376 -0.28933448 40 22
4.2044649 0.072458081 -0.093879148 13 45
3.9939213 -0.28393215 -0.23505083 34 26
4.0394292 -0.049860273 -0.50222647 25 9
4.2203789 0.0719935 -0.035790741 37 53
4.0117049 -0.28591689 -0.1803032 24 32
4.0537477 -0.050042711 -0.42159429 36 13
3.9988248 -0.28568837 -0.12416489 42 40
4.0642128 -0.050885502 -0.36590627 17 17
4.0792632 0.068179868 -0.54313558 45 8
4.0679312 -0.17279422 -0.18960629 14 31
4.0751758 -0.17310673 -0.13340767 40 39
4.1398668 -0.054753333 -0.085252911 13 46
3.9939408 -0.1703009 -0.47588962 25 10
4.1656542 -0.055104412 -0.028112382 41 54
4.1756425 -0.055240396 0.029624963 17 62
4.1753387 0.066857308 -0.20898579 14 29
4.184813 -0.056095764 0.087635197 38 69
4.1878715 0.067056373 -0.15080579 43 37
4.148644 0.18712702 -0.38841993 23 16
4.1636515 0.18707772 -0.33170399 17 20
4.1878119 0.18816638 -0.27530605 22 24
4.2162538 0.18797326 -0.21855795 13 28
4.2289109 0.18779959 -0.16049688 38 36
4.0912533 -0.18238543 -0.077233709 14 47
4.0687809 -0.061598655 -0.30962515 20 21
4.1069193 -0.18309408 -0.02062591 38 55
4.0826783 -0.062527277 -0.25390977 20 25
3.9400396 -0.29249516 -0.39697379 23 14
4.0858288 -0.062576771 -0.19737948 14 30
3.9501617 -0.29394951 -0.34202406 20 18
4.1131601 -0.063724183 -0.14167884 35 38
3.9693577 -0.2960929 -0.28896916 33 22
4.1996937 0.057713263 -0.093766585 13 45
3.9879289 -0.29749581 -0.23475517 14 26
4.0342703 -0.063879684 -0.50160414 29 9
4.2156048 0.057193987 -0.035747983 35 53
4.0057015 -0.2995415 -0.18007725 14 32
4.0436039 -0.064031191 -0.4205507 36 13
4.0177364 -0.30115789 -0.12478962 41 40
4.0540524 -0.064908557 -0.36500165 23 17
4.0745211 0.053875294 -0.54246998 27 8
4.0573249 -0.18652757 -0.18913695 14 31
4.0695548 -0.18709791 -0.13324276 34 39
4.1396508 -0.069203831 -0.085252911 14 46
3.988363 -0.18400919 -0.47529328 28 10
4.1604376 -0.069559403 -0.028078346 40 54
4.1704259 -0.069730267 0.029589184 14 62
4.1655602 0.052158486 -0.20848159 14 29
4.1745954 -0.070530407 0.087424025 28 69
4.1780877 0.052313738 -0.15044284 36 37
4.1086574 0.17166761 -0.44208652 43 12
4.1393251 0.17222925 -0.38748062 33 16
4.1642795 0.17254271 -0.33170399 17 20
4.1834583 0.17333984 -0.27497554 20 24
4.2019172 0.17263781 -0.21777551 17 28
4.2195559 0.17262706 -0.16011475 36 36
4.080605 -0.19617879 -0.077043474 17 47
4.0635562 -0.075706139 -0.3092424 25 21
4.1012616 -0.19718544 -0.020600602 43 55
4.0824351 -0.076778091 -0.25390977 25 25
3.9290767 -0.30546612 -0.39596495 27 14
4.095572 -0.077030331 -0.19786626 17 30
3.9491112 -0.30773634 -0.34202406 17 18
4.1129127 -0.078081399 -0.14167884 36 38
3.9633291 -0.3095538 -0.28860384 21 22
4.1948709 0.043002643 -0.093654014 14 45
3.9769146 -0.31062779 -0.23416384 14 26
4.0290627 -0.077863693 -0.50098187 40 9
4.20578 0.042378958 -0.035662461 31 53
3.9946735 -0.31273314 -0.17962538 25 32
4.0383844 -0.078047559 -0.42002898 37 13
4.2258773 0.041841276 0.022669971 36 61
3.991751 -0.31320268 -0.12400872 37 40
4.0488224 -0.078960374 -0.36454934 28 17
4.0598183 0.039509531 -0.54047316 42 8
4.0516615 -0.20043908 -0.18890232 20 31
4.0588946 -0.2008017 -0.13291295 29 39
4.1343856 -0.083550535 -0.085149065 17 46
3.9827387 -0.19768062 -0.47469693 29 10
4.1551704 -0.083978653 -0.028044311 31 54
4.1651578 -0.084184378 0.029553408 14 62
4.1557307 0.037528761 -0.20797741 17 29
4.1793222 -0.08520586 0.087529607 14 69
4.1682515 0.037640214 -0.15007988 47 37
4.1042643 0.15713382 -0.44154736 52 12
4.1299524 0.15739881 -0.38654125 43 16
4.1548958 0.15762644 -0.33090374 23 20
4.1740675 0.15835625 -0.27431455 30 24
4.197505 0.15778115 -0.21751472 14 28
4.2151403 0.15770957 -0.15992367 34 36
4.0798955 -0.21042156 -0.077043474 17 47
4.0582838 -0.089777887 -0.30885968 31 21
4.0905623 -0.2109787 -0.020549988 30 55
4.0771532 -0.090914771 -0.25359666 32 25
3.9329441 -0.31958687 -0.39646935 40 14
4.0952783 -0.09132608 -0.19786626 25 30
3.9480133 -0.32151946 -0.34202406 20 18
4.1076193 -0.09232343 -0.14150521 43 38
3.9572546 -0.3229762 -0.28823853 27 22
4.184999 0.028293245 -0.093428895 20 45
3.9708319 -0.32409722 -0.23386818 20 26
4.0238066 -0.091812111 -0.50035948 43 9
4.2059026 0.027697787 -0.035662461 29 53
3.9786236 -0.32543966 -0.17894754 20 32
4.0331159 -0.092028253 -0.41950718 39 13
4.2209978 0.027058538 0.022642918 45 61
4.048522 -0.093092918 -0.36454934 31 17
4.054976 0.025307603 -0.53980756 42 8
4.0509372 -0.2145808 -0.18890232 25 31
4.0581689 -0.21496867 -0.13291295 38 39
4.1290717 -0.097861335 -0.085045218 17 46
3.9770668 -0.21131504 -0.47410056 46 10
4.144855 -0.098241568 -0.027976245 31 54
4.1598401 -0.098602556 0.029517628 17 62
4.1558361 0.023022322 -0.20797741 20 29
4.1590095 -0.099308848 0.087107271 17 69
4.1633611 0.023063038 -0.14989842 39 37
4.1047878 0.14280632 -0.44154736 52 12
4.130477 0.14298162 -0.38654125 44 16
4.1554203 0.1431222 -0.33090374 29 20
4.1696081 0.1436127 -0.27398404 37 24
4.1930399 0.14295736 -0.21725391 17 28
4.2106709 0.14282501 -0.15973261 43 36
4.2275047 0.14265946 -0.10176162 50 44
4.0791364 -0.22466177 -0.077043474 20 47
4.0579453 -0.10394341 -0.30885968 40 21
4.0718226 -0.10501552 -0.25328362 37 25
3.9268484 -0.33288857 -0.39596495 43 14
4.0899415 -0.10548997 -0.19762288 29 30
3.9419041 -0.33487231 -0.34159002 36 18
4.1022768 -0.10652944 -0.14133158 50 38
3.9511349 -0.33635992 -0.28787321 43 22
4.1800733 0.013668996 -0.093316324 38 45
3.9696763 -0.33795601 -0.23386818 29 26
4.0185022 -0.10572479 -0.49973714 49 9
4.1959739 0.012986609 -0.03557694 43 53
3.9774632 -0.33932564 -0.17894754 23 32
4.0277991 -0.10597311 -0.4189854 42 13
4.2110667 0.012296418 0.022588812 41 61
4.0431952 -0.10709051 -0.36409709 42 17
4.0550394 0.011152941 -0.53980756 42 8
4.0401907 -0.22815011 -0.18843298 31 31
4.0524054 -0.228848 -0.13274805 38 39
4.1237073 -0.11213605 -0.08494138 23 46
3.976305 -0.22519629 -0.47410056 48 10
4.1394887 -0.11257134 -0.027942209 42 54
4.1494746 -0.11284679 0.029446069 23 62
4.150897 0.0085060196 -0.20772532 25 29
4.158637 -0.11382589 0.087107271 17 69
4.1634159 0.0085300561 -0.14989842 44 37
4.1002927 0.12832092 -0.44100821 33 12
4.1259756 0.12840721 -0.38607159 44 16
4.1509132 0.12846139 -0.33050364 43 20
4.170084 0.12905717 -0.27398404 42 24
4.1935129 0.12832005 -0.21725391 23 28
4.2061501 0.12797356 -0.15954153 44 36
4.2179847 0.1275983 -0.10151905 47 44
4.068347 -0.23830804 -0.076853245 25 47
4.0525742 -0.11796061 -0.30847692 46 21
4.0664434 -0.11908015 -0.25297052 44 25
3.9207072 -0.34615156 -0.39546052 44 14
4.0845571 -0.11961774 -0.19737948 43 30
3.9407113 -0.34863007 -0.34159002 44 18
4.0968857 -0.12069932 -0.14115797 47 38
3.9499364 -0.35014993 -0.28787321 43 22
4.1750965 -0.00092110224 -0.093203753 28 45
3.9684722 -0.35181072 -0.23386818 34 26
4.0081911 -0.1194518 -0.49849251 44 9
4.1909933 -0.0016581175 -0.035534177 45 53
3.9613304 -0.35186765 -0.17826971 25 32
4.0224342 -0.11988199 -0.41846362 43 13
4.2060843 -0.0024001198 0.022561762 41 61
4.0378194 -0.12105205 -0.36364478 43 17
4.0500989 -0.0029980969 -0.53914195 42 8
4.0393696 -0.24225162 -0.18843298 40 31
4.0465937 -0.24268967 -0.13258314 47 39
4.1182947 -0.12637453 -0.084837548 23 46
3.9655848 -0.23847216 -0.47290787 47 10
4.1340733 -0.12686488 -0.027908174 43 54
4.1440582 -0.12717518 0.029410291 31 62
4.1409144 -0.0059682573 -0.20722115 42 29
4.1534266 -0.005987911 -0.14953546 43 37
4.1007156 0.11400745 -0.44100821 30 12
4.1214228 0.11386596 -0.38560191 43 16
4.1363897 0.11355895 -0.32930323 43 20
4.1605349 0.11422496 -0.27332303 44 24
4.1889439 0.11354525 -0.21699309 29 28
4.1965818 0.11302029 -0.15915941 46 36
4.2234015 0.11300834 -0.10164034 47 44
4.2553282 0.25120249 -0.16902038 57 35
4.0674901 -0.25250775 -0.076853245 28 47
4.0371904 -0.13161276 -0.30732876 43 21
4.0560279 -0.13294303 -0.25234434 42 25
3.9145219 -0.3593758 -0.39495611 46 14
4.074132 -0.13354361 -0.19689275 44 30
3.9345105 -0.36192262 -0.34115598 44 18
4.0914445 -0.13483283 -0.14098434 44 38
3.9437251 -0.3634733 -0.28750789 43 22
4.1700687 -0.015475708 -0.09309119 40 45
3.9672201 -0.36566114 -0.23386818 38 26
4.0027914 -0.13327517 -0.49787015 38 9
4.1909623 -0.016287405 -0.035534177 49 53
4.0170217 -0.1337547 -0.41794187 42 13
4.2010503 -0.017061135 0.022534708 41 61
4.0274186 -0.13480876 -0.36274016 41 17
4.0500636 -0.017135561 -0.53914195 41 8
4.0335145 -0.25603047 -0.18819831 43 31
4.0357475 -0.25617367 -0.13225333 44 39
4.1128321 -0.14057656 -0.084733702 35 46
3.959774 -0.25199458 -0.4723115 47 10
4.1286082 -0.14112195 -0.027874138 43 54
4.1485858 -0.14181259 0.029446069 42 62
4.1358747 -0.020397434 -0.20696904 42 29
4.1433878 -0.020435462 -0.14917251 42 37
