# .PCD v0.7 - Point Cloud Data file format
VERSION 0.7
FIELDS x y z intensity ring
SIZE 4 4 4 4 2
TYPE F F F F U
COUNT 1 1 1 1 1
WIDTH 1240
HEIGHT 1
VIEWPOINT 0 0 0 1 0 0 0
POINTS 1240
DATA ascii
3.538877 0.9853012 -0.48855579 17 8
3.7555134 0.80991006 -0.17881188 36 31
3.7673631 0.81245691 -0.12598696 20 39
3.7481527 0.92367882 -0.079437844 28 46
3.6652179 0.78983355 -0.44607198 50 10
3.7682886 0.92863214 -0.026172422 32 54
3.782845 0.93221289 0.027621344 20 62
3.6435299 1.011682 -0.18907037 50 29
3.6601887 1.0163051 -0.13665073 29 37
3.5058739 1.0846884 -0.39410394 23 12
3.5252478 1.0900115 -0.3447403 31 16
3.5439813 1.0951291 -0.29489246 34 20
3.5714049 1.1036077 -0.24523057 25 24
3.5938005 1.1091578 -0.19456352 39 28
3.61534 1.1151175 -0.14330079 51 36
3.6218734 1.1164416 -0.091088176 51 44
3.7948613 0.81005448 -0.07314375 23 47
3.6574829 0.89393061 -0.28627884 30 21
3.6805618 0.89888018 -0.23543791 17 25
3.7348177 0.68254066 -0.38133696 42 14
3.6979563 0.90312052 -0.18375033 44 30
3.7594752 0.68634373 -0.32987091 45 18
3.7293792 0.91009104 -0.13212942 23 38
3.7735288 0.68821478 -0.27837485 29 22
3.6928751 1.0163573 -0.085436776 48 45
3.7868109 0.69062376 -0.22588533 17 26
3.6115847 0.88006204 -0.46177453 41 9
3.7179513 1.022557 -0.032669209 63 53
3.8093286 0.69402093 -0.17352489 47 32
3.6344309 0.88561863 -0.38872245 34 13
3.7326741 1.0259033 0.020749245 48 61
3.6443472 0.88735682 -0.3374117 20 17
3.5470736 0.97425395 -0.48922142 20 8
3.7583175 0.79679596 -0.17881188 31 31
3.7750649 0.80033439 -0.12615186 23 39
3.7464962 0.90941268 -0.079334006 37 46
3.6728101 0.77806014 -0.44666833 49 10
3.7763667 0.91665018 -0.026206456 45 54
3.7909355 0.92018008 0.027657123 23 62
3.6518552 1.0002761 -0.18932247 43 29
3.673353 1.0061612 -0.13701367 40 37
3.509639 1.072444 -0.39410394 28 12
3.533792 1.079154 -0.34520999 36 16
3.5525489 1.0842072 -0.29529259 48 20
3.5752354 1.0911344 -0.24523057 28 24
3.6024263 1.0980628 -0.19482432 42 28
3.6239893 1.1039475 -0.14349185 45 36
3.6305306 1.1052486 -0.091209464 51 44
3.8123455 0.79987246 -0.073429093 25 47
3.6702759 0.88348746 -0.28704432 30 21
3.683677 0.88602722 -0.23543791 37 25
3.7420747 0.67037189 -0.38184136 36 14
3.7059424 0.89137262 -0.18399371 45 30
3.761848 0.67321652 -0.32987091 35 18
3.7325335 0.89706755 -0.13212942 30 38
3.7709985 0.67416573 -0.27800953 28 22
3.6915765 1.0021517 -0.085324213 49 45
3.7941127 0.67827469 -0.22618099 23 26
3.6194596 0.86860561 -0.46239689 22 9
3.7263236 1.0108811 -0.032711968 40 53
3.8068097 0.67984635 -0.17329894 29 32
3.6423359 0.87408513 -0.38924423 20 13
3.7362325 1.0128676 0.020749245 38 61
3.6522651 0.87578928 -0.33786398 25 17
3.5552359 0.96316159 -0.489887 20 8
3.761076 0.78367209 -0.17881188 35 31
3.7827289 0.78816801 -0.12631677 28 39
3.7593725 0.89864981 -0.079541691 45 46
3.6803644 0.76624334 -0.4472647 43 10
3.7844067 0.90462297 -0.02624049 47 54
3.7989874 0.90810204 0.027692901 35 62
3.6553247 0.98752272 -0.18932247 41 29
3.6816666 0.99463528 -0.13719516 38 37
3.5181193 1.0616232 -0.39464307 32 12
3.5375373 1.0668123 -0.34520999 38 16
3.5610838 1.0732387 -0.29569271 49 20
3.5837991 1.0800883 -0.24556108 30 24
3.6062374 1.0854812 -0.19482432 44 28
3.6326053 1.0927306 -0.14368293 47 36
3.6343663 1.0925689 -0.091209464 40 44
3.4309058 1.2553971 -0.30311972 33 19
3.8102176 0.78555393 -0.073333979 36 47
3.6781888 0.87181813 -0.28742704 33 21
3.6916037 0.87431127 -0.23575099 38 25
3.7492924 0.65816081 -0.38234577 20 14
3.7187514 0.88072872 -0.18448047 46 30
3.7739892 0.66179216 -0.33073899 17 18
3.7405055 0.88518184 -0.13230304 34 38
3.7880669 0.66356534 -0.27910548 27 22
3.6998808 0.99055165 -0.085436776 48 45
3.8062916 0.66673946 -0.22677231 20 26
3.6321266 0.85824358 -0.46364155 25 9
3.7298293 0.99786758 -0.032711968 40 53
3.8190019 0.66826636 -0.17375083 28 32
3.6502049 0.8625071 -0.38976601 28 13
3.7397454 0.99981964 0.020749245 13 61
3.6649933 0.86531943 -0.33876857 30 17
3.5585763 0.95074558 -0.489887 23 8
3.7735763 0.77253526 -0.17928119 43 31
3.7903533 0.77595782 -0.12648167 31 39
3.7624867 0.88552165 -0.079541691 49 46
3.6830165 0.75339174 -0.4472647 33 10
3.7875414 0.89140743 -0.02624049 48 54
3.6635749 0.97604209 -0.18957457 43 29
3.6851161 0.98177779 -0.13719516 52 37
3.5313311 1.0521765 -0.39572132 46 12
3.5507812 1.0573001 -0.34614933 54 16
3.5695851 1.0622239 -0.29609284 47 20
3.5875475 1.0675719 -0.24556108 47 24
3.6100042 1.0728865 -0.19482432 51 28
3.6411867 1.0814669 -0.14387399 30 36
3.6429496 1.0812988 -0.091330752 36 44
3.4352672 1.2434133 -0.30311972 90 19
3.6821694 1.0929462 -0.038517542 43 52
3.5665154 1.1847273 -0.14884183 38 35
3.6812096 0.85897356 -0.28742704 38 21
3.6994936 0.86255097 -0.23606408 39 25
3.7515671 0.6450693 -0.38234577 20 14
3.7218029 0.8677426 -0.18448047 44 30
3.7762761 0.64861447 -0.33073899 20 18
3.7435725 0.87211967 -0.13230304 49 38
3.79036 0.65033847 -0.27910548 29 22
3.7081492 0.97890592 -0.085549347 40 45
3.8036757 0.65260977 -0.22647665 23 26
3.6351001 0.84555984 -0.46364155 30 9
3.7332897 0.98484194 -0.032711968 39 53
3.8114631 0.65325344 -0.17329894 37 32
3.6531932 0.84976023 -0.38976601 28 13
3.7480478 0.98803324 0.020776298 14 61
3.6679916 0.85252094 -0.33876857 36 17
3.5666656 0.93957978 -0.49055263 28 8
3.781147 0.76033956 -0.17951585 53 31
3.7979391 0.76370412 -0.12664658 37 39
3.7704248 0.87350893 -0.079645522 42 46
3.6953597 0.74247998 -0.44845739 32 10
3.7906299 0.87818104 -0.02624049 41 54
3.6669595 0.96324795 -0.18957457 41 29
3.6885207 0.96890843 -0.13719516 39 37
3.4888752 1.2532257 -0.25606361 50 23
3.5445194 1.0426505 -0.39679959 52 12
3.5592256 1.0463036 -0.34661901 47 16
3.5684898 1.0483519 -0.29569271 43 20
3.5912523 1.0550426 -0.24556108 44 24
3.6185188 1.0616852 -0.19508514 43 28
3.6449399 1.0687504 -0.14387399 23 36
3.6514988 1.0699824 -0.091452047 36 44
3.4442768 1.2330974 -0.30353725 96 19
3.6859622 1.0800865 -0.038517542 35 52
3.5753756 1.1738311 -0.14904162 59 35
3.6841857 0.84611845 -0.28742704 46 21
3.7073462 0.85074615 -0.23637715 44 25
3.7636085 0.63361198 -0.3833546 25 14
3.7296772 0.85586065 -0.18472384 47 30
3.7834301 0.63625014 -0.33117303 29 18
3.7514648 0.86016154 -0.13247666 49 38
3.7975256 0.63792497 -0.2794708 34 22
3.7067058 0.96469772 -0.085436776 35 45
3.7911613 0.63686228 -0.22558966 23 26
3.6380298 0.83286577 -0.46364155 36 9
3.7415438 0.97306216 -0.03275473 38 53
3.6561375 0.83700299 -0.38976601 37 13
3.7514739 0.97494406 0.020776298 13 61
3.6709449 0.83971214 -0.33876857 49 17
3.5747201 0.92836893 -0.49121821 30 8
3.783778 0.74713629 -0.17951585 50 31
3.8005817 0.75044215 -0.12664658 49 39
3.7734509 0.86034232 -0.079645522 40 46
3.6979289 0.72957623 -0.44845739 27 10
3.7985473 0.86605334 -0.026274525 39 54
3.6702995 0.95044202 -0.18957457 44 29
3.687043 0.95477521 -0.13701367 23 37
3.4885299 1.2393663 -0.2557157 64 23
3.543364 1.0288844 -0.39626047 40 12
3.5580759 1.0324852 -0.34614933 45 16
3.5721273 1.035889 -0.29569271 42 20
3.5997047 1.0438905 -0.24589159 39 24
3.6269984 1.0504373 -0.19534594 48 28
3.6486483 1.0560206 -0.14387399 13 36
3.6600127 1.0586191 -0.091573328 14 44
3.4579511 1.2243999 -0.30437228 60 19
3.6945128 1.0686032 -0.038568158 44 52
3.5794511 1.1613436 -0.14904162 54 35
3.6919796 0.83434999 -0.28780976 49 21
3.7102931 0.83779991 -0.23637715 43 25
3.7707062 0.62127459 -0.38385901 29 14
3.7326419 0.84283644 -0.18472384 46 30
3.790544 0.62384373 -0.33160707 32 18
3.7544446 0.84706128 -0.13247666 44 38
3.809572 0.62627351 -0.28020146 40 22
3.7148931 0.95299447 -0.085549347 27 45
3.8376949 0.63086873 -0.22825062 28 26
3.6457553 0.82124978 -0.46426392 52 9
3.7449179 0.95999575 -0.03275473 28 53
3.6638882 0.82532626 -0.39028779 49 13
3.7596979 0.96308321 0.020803351 14 61
3.6787124 0.82798439 -0.33922088 51 17
3.5731382 0.91465706 -0.49055263 39 8
3.7912672 0.73487097 -0.17975052 49 31
3.8129914 0.73906618 -0.12697639 50 39
3.7764313 0.84716523 -0.079645522 35 46
3.7053275 0.71760392 -0.44905373 30 10
3.8015475 0.85278857 -0.026274525 38 54
3.6784337 0.93885869 -0.18982665 39 29
3.695195 0.94313419 -0.13719516 17 37
3.4928348 1.2271816 -0.2557157 63 23
3.551712 1.0178797 -0.39679959 37 12
3.5664432 1.0214303 -0.34661901 33 16
3.5805128 1.0247858 -0.29609284 46 20
3.5985303 1.0299454 -0.24556108 17 24
3.6258423 1.0363975 -0.19508514 40 28
3.6427042 1.040532 -0.14349185 17 36
3.6636856 1.0458369 -0.091573328 24 44
3.4528015 1.2090218 -0.30353725 43 19
3.6982203 1.0557004 -0.038568158 43 52
3.5929971 1.1518965 -0.1494412 42 35
3.6948695 0.82145745 -0.28780976 47 21
3.7180667 0.8259235 -0.23669024 37 25
3.7728517 0.60810858 -0.38385901 32 14
3.7404368 0.83088285 -0.18496722 44 30
3.7926984 0.61060852 -0.33160707 36 18
3.7671359 0.83611202 -0.13282391 25 38
3.8068109 0.61218488 -0.27983615 48 22
3.7230432 0.94124573 -0.085661903 30 45
3.8053725 0.61195499 -0.22618099 29 26
3.6534438 0.80958992 -0.46488625 53 9
3.7530935 0.94814157 -0.032797489 28 53
3.6716025 0.81360561 -0.39080954 50 13
3.7678847 0.95117658 0.020830402 17 61
3.6815803 0.81513822 -0.33922088 45 17
3.5763092 0.90217888 -0.49055263 39 8
3.7938089 0.72163242 -0.17975052 48 31
3.8155477 0.72575182 -0.12697639 37 39
3.7842476 0.83505315 -0.079749368 20 46
3.7126873 0.705589 -0.44965011 39 10
3.6865315 0.92723024 -0.19007875 36 29
3.6984646 0.93022984 -0.13719516 26 37
3.5018077 1.2166221 -0.25606361 54 23
3.5552437 1.0054756 -0.39679959 20 12
3.5699873 1.0089748 -0.34661901 14 16
3.5888641 1.0136366 -0.29649296 39 20
3.6069045 1.0187347 -0.24589159 17 24
3.6342435 1.0250907 -0.19534594 28 28
3.6415055 1.026454 -0.14330079 25 36
3.490061 1.2091185 -0.3579793 59 15
3.6673141 1.033042 -0.091573328 29 44
3.4664147 1.2002293 -0.30437228 48 19
3.7018828 1.0427849 -0.038568158 43 52
3.7181695 1.0592929 0.014037651 56 60
3.5969958 1.1393474 -0.1494412 52 35
3.6129303 1.1444021 -0.097639814 68 43
3.7074559 0.81068075 -0.2885752 34 21
3.7160516 0.81187695 -0.23637715 38 25
3.7798665 0.59570479 -0.38436344 36 14
3.7433145 0.81782126 -0.18496722 31 30
3.8046494 0.59890532 -0.33247516 43 18
3.7651491 0.82189351 -0.13265029 14 38
3.8138511 0.5996626 -0.28020146 48 22
3.7311568 0.92945182 -0.085774474 29 45
3.8321426 0.60252041 -0.2276593 33 26
3.6562474 0.7968322 -0.46488625 54 9
3.7612324 0.93624222 -0.032840252 32 53
3.6744199 0.80078447 -0.39080954 50 13
3.7711818 0.93801838 0.020830402 20 61
3.6892688 0.80333948 -0.33967316 47 17
3.5938644 0.89327365 -0.49254942 17 8
3.8012149 0.7092979 -0.17998517 46 31
3.8017964 0.82501286 -0.080060892 14 46
3.7151277 0.69262499 -0.44965011 58 10
3.6897459 0.91435623 -0.19007875 29 29
3.7065394 0.91851532 -0.13737662 23 37
3.5465884 0.98966902 -0.53513497 42 7
3.4918847 1.1995196 -0.25501987 37 23
3.5587316 0.99305946 -0.39679959 17 12
3.5281677 1.211324 -0.2058953 60 27
3.5734873 0.99650705 -0.34661901 17 16
3.5923808 1.0011028 -0.29649296 23 20
3.6152446 1.007478 -0.24622208 20 24
3.6426098 1.0137382 -0.19560675 37 28
3.6595066 1.0177549 -0.14387399 30 36
3.4424887 1.1791526 -0.35262179 96 15
3.6805291 1.0229126 -0.091815911 38 44
3.4752958 1.1897391 -0.30478981 47 19
3.7103174 1.031196 -0.038618773 43 52
3.7218444 1.0463076 0.014037651 54 60
3.6057181 1.1282786 -0.14964098 51 35
3.6121337 1.1302891 -0.097509801 61 43
3.7102633 0.79773438 -0.2885752 32 21
3.7286217 0.80099267 -0.23700333 30 25
3.7868397 0.5832594 -0.38486782 53 14
3.7510295 0.8057965 -0.1852106 30 30
3.8116405 0.58637351 -0.3329092 47 18
3.7777674 0.81083894 -0.13299754 17 38
3.8257806 0.58785135 -0.2809321 49 22
3.7392333 0.91761267 -0.085887037 31 45
3.6638582 0.78510201 -0.46550858 54 9
3.7693338 0.92429745 -0.032883015 48 53
3.6771929 0.78795344 -0.39080954 42 13
3.7792897 0.92603815 0.020857455 23 61
3.6920505 0.79045665 -0.33967316 31 17
3.6017745 0.8819012 -0.49321505 17 8
3.8036678 0.69602489 -0.17998517 46 31
3.7997634 0.81069607 -0.079957046 17 46
3.7224064 0.68054193 -0.45024645 49 10
3.6977661 0.90265447 -0.19033085 40 29
3.7242861 0.90912426 -0.13792105 29 37
3.535713 0.97334188 -0.53295666 13 7
3.5054939 1.1905382 -0.2557157 54 23
3.5717611 0.98327124 -0.39787784 17 12
3.5276484 1.1973932 -0.20561707 64 27
3.5865431 0.98666942 -0.34755835 23 16
3.6054642 0.99120075 -0.29729322 29 20
3.6235497 0.99617547 -0.24655259 20 24
3.6461263 1.0010169 -0.19560675 45 28
3.672673 1.0076197 -0.14425611 33 36
3.4984174 1.184724 -0.3579793 57 15
3.6888978 1.0113814 -0.091937199 41 44
3.4841461 1.1792016 -0.30520734 45 19
3.7138941 1.0182383 -0.038618773 43 52
3.7302918 1.0346466 0.014055977 40 60
3.6144075 1.1171629 -0.14984077 55 35
3.6256068 1.1206297 -0.097769827 56 43
3.7130253 0.78477824 -0.2885752 39 21
3.7362778 0.78900141 -0.23731641 23 25
3.7839329 0.56930202 -0.38436344 51 14
3.7538195 0.79269803 -0.1852106 30 30
3.813664 0.57306486 -0.3329092 43 18
3.7805748 0.79764712 -0.13299754 25 38
3.8278093 0.57449329 -0.2809321 52 22
3.7424138 0.90455467 -0.085887037 36 45
3.6714311 0.77332848 -0.46613091 49 9
3.772537 0.91113442 -0.032883015 51 53
3.684787 0.77613574 -0.39133134 23 13
3.7824993 0.91284031 0.020857455 25 61
3.6996605 0.77858758 -0.34012547 27 17
3.6096485 0.87048429 -0.49388066 17 8
3.8060744 0.68274337 -0.17998517 40 31
3.8074634 0.79845142 -0.080060892 20 46
3.7247593 0.66754407 -0.45024645 48 10
3.7057502 0.89090806 -0.19058295 51 29
3.7322953 0.89728582 -0.13810253 33 37
3.5438633 0.96229112 -0.53368276 17 7
3.5001738 1.1751125 -0.25501987 45 23
3.5751717 0.97079748 -0.39787784 23 12
3.54127 1.188255 -0.20617354 33 27
3.5947692 0.97544831 -0.34802803 28 16
3.5485997 1.1900311 -0.15471223 5 34
3.6089025 0.97860932 -0.29729322 34 20
3.6318197 0.98482728 -0.24688308 25 24
3.6544178 0.9895891 -0.19586755 48 28
3.6809907 0.99609941 -0.14444719 39 36
3.4600718 1.158257 -0.35359588 32 15
3.6875806 0.99719304 -0.091815911 48 44
3.4882412 1.1670325 -0.30520734 45 19
3.7222521 1.006574 -0.038669389 43 52
3.7338808 1.0216191 0.014055977 40 60
3.7622619 1.0293887 0.068128012 41 68
3.6230628 1.1060002 -0.15004055 46 35
3.6294963 1.107967 -0.097769827 54 43
3.7255051 0.77383626 -0.28934067 25 21
3.7390091 0.77595454 -0.23731641 23 25
3.795742 0.55752641 -0.38537225 43 14
3.7614541 0.78060269 -0.18545398 37 30
3.8156412 0.55974925 -0.3329092 41 18
3.7931228 0.78647053 -0.1333448 29 38
3.8297913 0.5611282 -0.2809321 50 22
3.7504115 0.8926425 -0.085999601 48 45
3.678967 0.76151156 -0.46675327 25 9
3.7805588 0.89911634 -0.032925773 63 53
3.6923437 0.76427448 -0.39185309 14 13
3.7905273 0.9007867 0.020884508 36 61
3.7121093 0.76768136 -0.34103006 20 17
3.6174862 0.85902315 -0.49454626 20 8
3.8133538 0.67031479 -0.18021984 28 31
3.8200204 0.78716981 -0.080268569 28 46
3.727067 0.65453821 -0.45024645 48 10
3.7088375 0.87796718 -0.19058295 39 29
3.7354045 0.88425225 -0.13810253 39 37
3.5519793 0.95119518 -0.53440887 20 7
3.5137203 1.1660361 -0.2557157 42 23
3.5833404 0.95959836 -0.398417 30 12
3.540659 1.1743114 -0.2058953 35 27
3.5981522 0.9628942 -0.34802803 33 16
3.5622139 1.1807874 -0.15512925 68 34
3.617111 0.96729416 -0.29769334 49 20
3.6400549 0.97343343 -0.24721359 28 24
3.6626735 0.97811568 -0.19612837 40 28
3.6844454 0.9832443 -0.14444719 49 36
3.4640939 1.1461722 -0.35359588 33 15
3.6958687 0.98560351 -0.091937199 41 44
3.4922934 1.1548493 -0.30520734 45 19
3.7257431 0.9935748 -0.038669389 43 52
3.7374239 1.0085793 0.014055977 39 60
3.7658319 1.0162497 0.068128012 47 68
3.6316841 1.0947906 -0.15024035 48 35
3.6285565 1.0938463 -0.097639814 30 43
3.7330687 0.76182187 -0.28972337 29 21
3.7514749 0.76488805 -0.23794258 25 25
3.7976646 0.54427338 -0.38537225 45 14
3.7690496 0.76846367 -0.18569735 49 30
3.8175721 0.54642671 -0.3329092 20 18
3.7958453 0.77322531 -0.1333448 31 38
3.8366637 0.54845721 -0.28129742 47 22
3.7583714 0.88068539 -0.086112164 47 45
3.6913269 0.75063801 -0.46799794 20 9
3.7836742 0.88591421 -0.032925773 64 53
3.704736 0.75335884 -0.39289665 20 13
3.7196465 0.75570834 -0.34148234 25 17
3.6301141 0.84864533 -0.49587747 17 8
3.8156705 0.65699959 -0.18021984 34 31
3.8227444 0.77383065 -0.080268569 38 46
3.7342222 0.64236253 -0.4508428 35 10
3.7216065 0.86728084 -0.19108713 42 29
3.743335 0.87234122 -0.13828401 52 37
3.5457118 0.93626332 -0.53295666 30 7
3.6879218 1.0907354 -0.045882385 52 51
3.5177691 1.153764 -0.2557157 30 23
3.5914738 0.94835418 -0.39895609 35 12
3.5399938 1.1603867 -0.20561707 29 27
3.6063044 0.95159912 -0.34849769 42 16
3.5615675 1.1667871 -0.15492074 68 34
3.6252842 0.95593363 -0.29809347 49 20
3.6482544 0.96199405 -0.24754408 47 24
3.6660655 0.96532458 -0.19612837 50 28
3.6830232 0.96910506 -0.14425611 42 36
3.4822598 1.1387236 -0.35505703 44 15
3.6992865 0.9726966 -0.091937199 38 44
3.5057728 1.1457542 -0.30604237 45 19
3.7340236 0.9818356 -0.038720001 43 52
3.7457535 0.9968136 0.014074303 14 60
3.7693565 1.0030982 0.068128012 49 68
3.6354835 1.0821069 -0.15024035 33 35
3.6419325 1.0840294 -0.097899839 33 43
3.7405937 0.74976408 -0.29010612 35 21
3.7590153 0.75276607 -0.23825565 41 25
3.8044689 0.53169739 -0.38587666 31 14
3.7766066 0.75628114 -0.18594073 48 30
3.8243899 0.53378135 -0.33334324 20 18
3.8034213 0.7609489 -0.13351843 47 38
3.8434944 0.53574514 -0.28166276 43 22
3.7662938 0.8686837 -0.086224735 49 45
3.6939249 0.73774827 -0.46799794 25 9
3.7867436 0.87270135 -0.032925773 64 53
3.7073433 0.74042225 -0.39289665 25 13
3.7222619 0.74271977 -0.34148234 28 17
3.6330543 0.83596873 -0.49587747 23 8
3.7413375 0.63014477 -0.45143914 23 10
3.7246113 0.8542847 -0.19108713 40 29
3.7463572 0.85926926 -0.13828401 52 37
3.5489585 0.92388082 -0.53295666 38 7
3.6917069 1.0778555 -0.045882385 48 51
3.5265186 1.143019 -0.25606361 31 23
3.604383 0.93831789 -0.40003437 50 12
3.5487709 1.1495645 -0.2058953 29 27
3.6192391 0.941513 -0.34943706 46 16
3.5798736 1.1589741 -0.15554628 47 34
3.6334224 0.94452792 -0.29849359 49 20
3.6515901 0.9492535 -0.24754408 36 24
3.6694129 0.95252174 -0.19612837 45 28
3.6863835 0.95624298 -0.14425611 35 36
3.4862134 1.1265613 -0.35505703 30 15
3.7026596 0.95977765 -0.091937199 35 44
3.5097513 1.1335098 -0.30604237 36 19
3.7374284 0.96879536 -0.038720001 41 52
3.7492104 0.98373246 0.014074303 14 60
3.7631643 0.98739588 0.067951746 39 68
3.6440313 1.0708207 -0.15044013 25 35
3.6456945 1.0713103 -0.097899839 23 43
3.7431881 0.73670238 -0.29010612 41 21
3.7616203 0.73964006 -0.23825565 46 25
3.8112314 0.51908064 -0.38638109 24 14
3.7841241 0.74405509 -0.18618411 50 30
3.8311665 0.52109504 -0.33377728 20 18
3.8011506 0.74670666 -0.1333448 42 38
3.7644281 0.85442579 -0.086112164 42 45
3.7013462 0.72580224 -0.46862027 29 9
3.7946432 0.86058301 -0.032968536 61 53
3.7196655 0.72938639 -0.39394018 30 13
3.7297187 0.73067737 -0.34193465 39 17
3.6407835 0.82437557 -0.49654311 32 8
3.7484131 0.61788517 -0.45203552 30 10
3.7324417 0.84237689 -0.19133921 39 29
3.7542078 0.84728611 -0.13846548 38 37
3.5473704 0.91025674 -0.53223056 48 7
3.7002501 1.0663488 -0.045942597 47 51
3.5304871 1.1307021 -0.25606361 22 23
3.6124511 0.92696667 -0.40057349 51 12
3.5575156 1.1386954 -0.20617354 33 27
3.6273251 0.93011093 -0.34990671 49 16
3.5886543 1.1479963 -0.15575477 46 34
3.6415253 0.93307692 -0.29889372 45 20
3.6548815 0.9365012 -0.24754408 44 24
3.6775525 0.9409458 -0.19638918 48 28
3.6896989 0.94336933 -0.14425611 31 36
3.4948637 1.1159023 -0.35554406 23 15
3.71083 0.94808513 -0.092058487 24 44
3.5136867 1.1212516 -0.30604237 36 19
3.7456315 0.95698178 -0.038770616 31 52
3.7574618 0.971892 0.01409263 17 60
3.7714276 0.97550642 0.068039879 20 68
3.647747 1.0580941 -0.15044013 30 35
3.654212 1.0599723 -0.098029852 25 43
3.750632 0.72457534 -0.29048884 49 21
3.7690794 0.7274487 -0.23856874 44 25
3.8228838 0.50707245 -0.3873899 25 14
3.7866981 0.73084152 -0.18618411 48 30
3.8280234 0.50706929 -0.33334324 25 18
3.808641 0.73437768 -0.13351843 49 38
3.7722666 0.84236902 -0.086224735 35 45
3.7038572 0.71287763 -0.46862027 32 9
3.7976241 0.84733194 -0.032968536 40 53
3.7221889 0.71639782 -0.39394018 42 13
3.7420273 0.71953017 -0.34283924 42 17
3.6484761 0.8127386 -0.49720868 52 8
3.7554488 0.60558385 -0.45263186 36 10
3.7402344 0.83042473 -0.19159132 39 29
3.7571425 0.83417624 -0.13846548 20 37
3.5745051 0.90393621 -0.53586107 49 7
3.7039497 1.053426 -0.045942597 40 51
3.5391667 1.1198797 -0.25641152 21 23
3.6108458 0.91313183 -0.40003437 43 12
3.7140107 1.0555912 0.0073434678 31 59
3.5614686 1.1262704 -0.20617354 33 27
3.6257238 0.91622323 -0.34943706 41 16
3.5926397 1.1354626 -0.15575477 50 34
3.6399281 0.91913897 -0.29849359 43 20
3.5943661 1.1360096 -0.10363621 67 42
3.6581283 0.92373753 -0.24754408 39 24
3.6808145 0.92810291 -0.19638918 35 28
3.6978142 0.93170547 -0.14444719 17 36
3.4987376 1.1036961 -0.35554406 21 15
3.7189636 0.93634725 -0.092179775 13 44
3.5175788 1.1089797 -0.30604237 20 19
3.7537966 0.94512254 -0.038821232 31 52
3.765676 0.96000588 0.014110955 17 60
3.7893422 0.96604264 0.068304285 29 68
3.6466157 1.0439776 -0.15024035 28 35
3.6578896 1.0472103 -0.098029852 20 43
3.7580371 0.71240515 -0.29087156 47 21
3.7764993 0.71521425 -0.23888181 40 25
3.8246307 0.493725 -0.3873899 31 14
3.7892263 0.71761906 -0.18618411 49 30
3.8643563 0.49812835 -0.33638152 28 18
3.8160913 0.72200537 -0.13369204 39 38
3.7800663 0.83026785 -0.086337298 24 45
3.7063229 0.69994444 -0.46862027 40 9
3.7246668 0.70340061 -0.39394018 52 13
3.7445161 0.70646363 -0.34283924 48 17
3.6416092 0.79787832 -0.49587747 54 8
3.762444 0.59324098 -0.45322821 43 10
3.7431104 0.81736392 -0.19159132 37 29
3.7697952 0.82318699 -0.13882843 17 37
3.5728388 0.89025664 -0.53513497 53 7
3.7076044 1.0404904 -0.045942597 45 51
3.5478139 1.1090105 -0.25675943 28 23
3.6188343 0.90172458 -0.40057349 43 12
3.7273002 1.0453249 0.0073626665 35 59
3.5749063 1.1168158 -0.20673001 34 27
3.6337299 0.90476489 -0.34990671 20 16
3.6013491 1.1244073 -0.15596329 48 34
3.6479504 0.90763175 -0.29889372 39 20
3.6030796 1.124949 -0.10377495 98 42
3.6613302 0.91096276 -0.24754408 17 24
3.6840317 0.91524881 -0.19638918 31 28
3.7010441 0.91879207 -0.14444719 17 36
3.5073192 1.0929607 -0.35603112 24 15
3.7270608 0.92456412 -0.092301063 23 44
3.5261846 1.0981793 -0.30645987 26 19
3.7619257 0.93321812 -0.038871847 35 52
3.7690043 0.94685537 0.014110955 17 60
3.6454306 1.0298818 -0.15004055 33 35
3.6567132 1.0330745 -0.097899839 31 43
3.7654026 0.70019221 -0.29125428 40 21
3.7789726 0.70202744 -0.23888181 43 25
3.8362033 0.48160121 -0.38839874 37 14
3.791708 0.70438784 -0.18618411 46 30
3.8364134 0.48094732 -0.33377728 29 18
3.8136749 0.70777065 -0.13351843 39 38
3.7927141 0.81917727 -0.086562432 23 45
3.7136221 0.68790424 -0.4692426 52 9
3.7270994 0.69039482 -0.39394018 52 13
3.7518559 0.69429255 -0.34329152 48 17
3.6492167 0.78620487 -0.49654311 56 8
3.7644918 0.58010399 -0.45322821 57 10
3.7459409 0.80429298 -0.19159132 36 29
3.7726457 0.81002289 -0.13882843 26 37
3.5855331 0.88013965 -0.53658718 49 7
3.7160318 1.0288782 -0.046002813 49 51
3.5564287 1.0980946 -0.25710735 34 23
3.6267877 0.89027274 -0.40111265 30 12
3.7261083 1.0309726 0.0073530674 48 59
3.5835526 1.1058058 -0.20700826 40 27
3.6465349 0.8944484 -0.35084605 17 16
3.6147976 1.1147805 -0.1563803 45 34
3.6559372 0.8960796 -0.29929385 43 20
3.6117594 1.1138412 -0.10391368 50 42
3.6741791 0.90055346 -0.24820508 20 24
3.692054 0.90357131 -0.19665 25 28
3.7236414 0.91061765 -0.14521146 25 36
3.5158677 1.0821784 -0.35651815 31 15
3.7351213 0.91273588 -0.092422359 23 44
3.5442803 1.0902692 -0.30771244 31 19
3.7651603 0.92008084 -0.038871847 37 52
3.7771399 0.93489534 0.014129281 23 60
3.663439 1.0211812 -0.15063992 31 35
3.6747396 1.0243363 -0.098289877 32 43
3.7678239 0.68704426 -0.29125428 32 21
3.78631 0.68972445 -0.2391949 23 25
3.8378611 0.46820742 -0.38839874 51 14
3.8039708 0.69293392 -0.18667085 43 30
3.8726847 0.47173569 -0.33681557 33 18
3.7955506 0.8059333 -0.086562432 24 45
3.7208822 0.6758216 -0.46986493 50 9
3.7294867 0.67738062 -0.39394018 43 13
3.7542567 0.68119192 -0.34329152 38 17
3.6567869 0.77448797 -0.49720868 54 8
3.7714033 0.56769538 -0.45382455 57 10
3.758498 0.79327345 -0.1920955 28 29
3.7754502 0.79684901 -0.13882843 23 37
3.5885835 0.8676185 -0.53658718 43 7
3.7196004 1.0159006 -0.046002813 51 51
3.5650096 1.087132 -0.25745526 41 23
3.6347044 0.87877631 -0.40165177 17 12
3.7345071 1.0192783 0.0073626665 33 59
3.5921648 1.0947487 -0.20728649 39 27
3.6496348 0.88171417 -0.35084605 20 16
3.6234446 1.1036147 -0.15658881 44 34
3.6638873 0.88448274 -0.29969397 25 20
3.6156254 1.101227 -0.10391368 48 42
3.6773 0.88772267 -0.24820508 20 24
3.7000396 0.8918488 -0.1969108 32 28
3.7316546 0.89878476 -0.14540252 30 36
3.524384 1.07135 -0.35700521 41 15
3.7382843 0.89969236 -0.092422359 35 44
3.5480645 1.0778906 -0.30771244 39 19
3.7732098 0.90810305 -0.038922463 51 52
3.7852378 0.92289001 0.014147607 25 60
3.671798 1.0097139 -0.1508397 41 35
3.6831117 1.0128301 -0.09841989 40 43
3.6623302 1.123178 -0.052324716 80 50
3.5538757 1.2044963 -0.161616 36 33
3.7701991 0.67388791 -0.29125428 32 21
3.7886946 0.67650354 -0.2391949 23 25
3.8394721 0.45480794 -0.38839874 49 14
3.8063664 0.67965138 -0.18667085 25 30
3.7983406 0.79267937 -0.086562432 26 45
3.7232187 0.66282922 -0.46986493 48 9
3.7416205 0.66609716 -0.39498374 47 13
3.7615147 0.66895276 -0.3437438 35 17
3.6643198 0.76272792 -0.49787432 20 8
3.7733619 0.55452722 -0.45382455 57 10
3.7612441 0.78014904 -0.1920955 35 29
3.7879941 0.78569359 -0.13919137 30 37
3.5964026 0.85623318 -0.53731322 23 7
3.7279506 1.004213 -0.046063025 45 51
3.5735576 1.0761228 -0.25780317 47 23
3.6425855 0.86723554 -0.40219089 24 12
3.7428699 1.0075378 0.0073722657 36 59
3.6007438 1.0836453 -0.20756473 43 27
3.6575332 0.87012196 -0.35131574 23 16
3.7858522 1.0191272 0.061700907 58 67
3.6320579 1.0924021 -0.15679732 42 34
3.6669524 0.87168807 -0.29969397 29 20
3.6242328 1.0900425 -0.10405242 32 42
3.6852305 0.87603569 -0.24853559 25 24
3.7031302 0.87892783 -0.1969108 45 28
3.729908 0.8845998 -0.14521146 40 36
3.532867 1.060475 -0.35749227 40 15
3.7462656 0.88779104 -0.092543647 37 44
3.556577 1.066934 -0.30812997 48 19
3.7812216 0.89608008 -0.038973074 54 52
3.7884362 0.90967143 0.014147607 29 60
3.6753004 0.99689078 -0.1508397 43 35
3.6914485 1.001278 -0.098549902 42 43
3.6710124 1.1118398 -0.052393656 77 50
3.5438533 1.1873085 -0.16096431 68 33
3.7823503 0.66243935 -0.29201972 42 21
3.8057804 0.6658482 -0.24013413 23 25
3.845979 0.44196606 -0.38890317 54 14
3.8136356 0.66721916 -0.18691425 23 30
3.8157754 0.78242612 -0.086900122 33 45
3.7303977 0.65067911 -0.4704873 31 9
3.7488222 0.65388477 -0.39550552 34 13
3.7687323 0.65667129 -0.34419611 33 17
3.6718149 0.75092453 -0.49853992 17 8
3.7752745 0.54135239 -0.45382455 50 10
3.7688375 0.76801151 -0.19234759 49 29
3.7907138 0.77246624 -0.13919137 38 37
3.6090019 0.84593338 -0.53876543 20 7
3.7314334 0.99119383 -0.046063025 45 51
3.582072 1.0650672 -0.25815108 38 23
3.6504297 0.85565025 -0.40273002 25 12
3.7463641 0.99446666 0.0073722657 13 59
3.6045046 1.0710697 -0.20756473 44 27
3.6653943 0.85848534 -0.35178542 28 16
3.7555659 0.99691331 0.061145041 61 67
3.635849 1.0797172 -0.15679732 38 34
3.6796782 0.86115545 -0.30049422 33 20
3.6328058 1.078811 -0.10419115 28 42
3.6931233 0.86430401 -0.24886608 29 24
3.7158999 0.8682698 -0.19743241 47 28
3.7427037 0.8738479 -0.1455936 49 36
3.5508578 1.052389 -0.35895342 45 15
3.7542095 0.87584507 -0.092664935 45 44
3.5650558 1.0559312 -0.3085475 53 19
3.7843263 0.88287568 -0.038973074 51 52
3.7964544 0.8975929 0.014165933 42 60
3.4432375 1.1421311 -0.40923011 95 11
3.6787577 0.98405552 -0.1508397 48 35
3.694921 0.98838645 -0.098549902 41 43
3.5344143 0.94471782 -0.58929342 40 6
3.674871 1.0990188 -0.052393656 44 50
3.5716786 1.1828065 -0.16205044 33 33
3.7895534 0.65007329 -0.29240248 26 21
3.7982438 0.65087789 -0.23950797 23 25
3.8474982 0.42853838 -0.38890317 53 14
3.8159413 0.65390301 -0.18691425 28 30
3.8135827 0.76811552 -0.086787559 39 45
3.7375364 0.63848692 -0.4711096 20 9
3.7510817 0.64079499 -0.39550552 25 13
3.7710018 0.64351189 -0.34419611 23 17
3.6792724 0.73907822 -0.49920553 20 8
3.7820587 0.52885497 -0.45442092 36 10
3.7763917 0.75583047 -0.19259968 54 29
3.7933867 0.75922948 -0.13919137 41 37
3.611933 0.83333051 -0.53876543 23 7
3.7397068 0.97943145 -0.046123236 44 51
3.5809834 1.0511487 -0.25780317 48 23
3.6533945 0.84290266 -0.40273002 32 12
3.7498126 0.98138326 0.0073722657 17 59
3.6082215 1.058481 -0.20756473 36 27
3.6732194 0.84680444 -0.35225511 31 16
3.7686946 0.98633337 0.061303858 33 67
3.6443884 1.0684279 -0.15700582 36 34
3.6826618 0.84830576 -0.30049422 40 20
3.6413448 1.0675333 -0.10432989 18 42
3.7009795 0.85252798 -0.24919659 29 24
3.7189081 0.85529357 -0.19743241 39 28
3.7408617 0.85965836 -0.14540252 48 36
3.5592842 1.0413886 -0.35944045 51 15
3.7572439 0.86273503 -0.092664935 43 44
3.5687201 1.0434806 -0.3085475 50 19
3.7873852 0.8696605 -0.038973074 46 52
3.4613602 1.1347624 -0.41092816 42 11
3.6821702 0.97120833 -0.1508397 45 35
3.6983483 0.97548282 -0.098549902 39 43
3.5233757 0.92859519 -0.58688492 58 6
3.6834788 1.0876036 -0.052462593 48 50
3.7030029 1.0933832 0.00066758838 96 58
3.5615478 1.1656562 -0.16139877 44 33
3.7917998 0.6368413 -0.29240248 33 21
3.8004923 0.6376155 -0.23950797 35 25
3.8539166 0.41563413 -0.38940758 53 14
3.8280518 0.64222741 -0.187401 39 30
3.7446361 0.62625289 -0.47173196 20 9
3.7631056 0.62933367 -0.39654908 25 13
3.778137 0.63116312 -0.34464839 33 17
3.6818302 0.72623068 -0.49920553 20 8
3.7888005 0.51631677 -0.45501727 23 10
3.7839074 0.74360603 -0.19285178 47 29
3.8009174 0.74694633 -0.13937286 56 37
3.6196439 0.82181346 -0.53949153 31 7
3.743103 0.96637148 -0.046123236 43 51
3.5846307 1.0386422 -0.25780317 30 23
3.6563144 0.83014482 -0.40273002 46 12
3.7532153 0.96828794 0.0073722657 14 59
3.6166885 1.0472714 -0.20784296 25 27
3.6712985 0.83287531 -0.35178542 36 16
3.7672746 0.97192132 0.061224449 30 67
3.6432981 1.0543079 -0.15679732 34 34
3.6856005 0.8354457 -0.30049422 48 20
3.6450489 1.0548159 -0.10432989 18 42
3.7039325 0.83960396 -0.24919659 40 24
3.7267408 0.84340984 -0.19769323 41 28
3.7535861 0.84880048 -0.14578466 44 36
3.5533383 1.0261898 -0.35846636 31 15
3.7651079 0.85071695 -0.092786223 40 44
3.5723407 1.0310169 -0.3085475 47 19
3.7952745 0.85753745 -0.03902369 43 52
3.4558513 1.1196011 -0.40979612 29 11
3.6903725 0.95960861 -0.1510395 39 35
3.7017307 0.96256721 -0.098549902 25 43
3.5600274 0.92499274 -0.59250486 58 6
3.687253 1.0747391 -0.052462593 44 50
3.6971986 1.0776455 0.00066584308 87 58
3.5703464 1.1547589 -0.161616 48 33
3.5864091 1.1599718 -0.11015235 54 41
3.8038387 0.62521458 -0.29316792 37 21
3.8174689 0.62676483 -0.24044722 30 25
3.8553443 0.40217888 -0.38940758 47 14
3.7516954 0.61397696 -0.47235429 25 9
3.7701871 0.61699516 -0.39707085 31 13
3.7852316 0.61877245 -0.3451007 39 17
3.6892076 0.71431553 -0.49987113 23 8
3.8004229 0.50438762 -0.45620996 23 10
3.7864797 0.73039323 -0.19285178 43 29
3.7985947 0.73272836 -0.13919137 54 37
3.6273184 0.81025273 -0.5402177 45 7
3.751298 0.95453459 -0.046183448 33 51
3.5930288 1.027498 -0.25815108 33 23
3.6640413 0.81846124 -0.40326917 49 12
3.7614179 0.95641512 0.0073818653 14 59
3.6155229 1.0332654 -0.20756473 35 27
3.6838996 0.82222515 -0.35272476 49 16
3.7754889 0.95999914 0.061303858 17 67
3.6421535 1.0402087 -0.15658881 35 34
3.6933587 0.82366097 -0.30089435 48 20
3.6487088 1.042086 -0.10432989 20 42
3.71171 0.82775635 -0.24952707 39 24
3.7345357 0.8314817 -0.19795403 43 28
3.756526 0.83569288 -0.14578466 45 36
3.5616834 1.0151476 -0.35895342 32 15
3.7729337 0.83865434 -0.092907511 36 44
3.5807087 1.0199093 -0.308965 38 19
3.7982447 0.84428418 -0.03902369 42 52
3.4739277 1.1120896 -0.4114942 25 11
3.6936998 0.9467209 -0.1510395 23 35
3.7099094 0.95088291 -0.098679915 21 43
3.5441134 0.90765446 -0.58929342 33 6
3.6957858 1.0632472 -0.052531533 38 50
3.7153502 1.0688906 0.00066846109 91 58
3.5791121 1.1438144 -0.16183321 52 33
3.5904365 1.1474459 -0.11015235 88 41
3.8059981 0.61193287 -0.29316792 42 21
3.8294883 0.61501408 -0.2410734 32 25
3.7587149 0.60165942 -0.47297662 28 9
3.7723179 0.60383099 -0.39707085 40 13
3.7922862 0.60633993 -0.34555298 30 17
3.6916785 0.70143342 -0.49987113 25 8
3.8070846 0.49175113 -0.45680633 29 10
3.7890065 0.71717143 -0.19285178 45 29
3.8109488 0.72132146 -0.13955434 39 37
3.6204612 0.79546148 -0.53876543 49 7
3.7594564 0.94265234 -0.046243664 32 51
3.6013935 1.0163078 -0.258499 26 23
3.6717308 0.80673379 -0.4038083 43 12
3.769583 0.94449669 0.0073914644 14 59
3.6239116 1.0219969 -0.20784296 27 27
3.6867476 0.80936092 -0.35272476 41 16
3.8079107 0.95411682 0.061780311 36 67
3.6457622 1.0274891 -0.15658881 30 34
3.6962111 0.81076372 -0.30089435 46 20
3.6427045 1.0266249 -0.10405242 24 42
3.7145767 0.81479496 -0.24952707 40 24
3.7374156 0.81844068 -0.19795403 36 28
3.7643008 0.82364368 -0.14597574 30 36
3.5652051 1.0027088 -0.35895342 31 15
3.7807212 0.82654744 -0.093028799 13 44
3.5842469 1.0074041 -0.308965 40 19
3.8060529 0.83208919 -0.039074302 41 52
3.4825234 1.1014595 -0.4120602 30 11
3.7018251 0.93504727 -0.15123928 31 35
3.7180519 0.93915331 -0.098809928 19 43
3.561614 0.89890701 -0.59170204 33 6
3.704283 1.0517089 -0.052600469 38 50
3.7094407 1.0531772 0.00066671573 49 58
3.5878448 1.1328228 -0.16205044 53 33
3.5944197 1.1349059 -0.11015235 51 41
3.8130357 0.59941584 -0.29355064 43 21
3.8217518 0.60009879 -0.24044722 49 25
3.760792 0.58853543 -0.47297662 31 9
3.7793157 0.59142625 -0.39759263 52 13
3.7992992 0.59386551 -0.34600526 35 17
3.6989763 0.68945014 -0.50053674 28 8
3.8137035 0.47907421 -0.45740268 32 10
3.7963967 0.70485181 -0.19310388 39 29
3.8085308 0.70710289 -0.13937286 39 37
3.6280513 0.78386432 -0.53949153 52 7
3.7675772 0.93072474 -0.046303879 32 51
3.604919 1.0037304 -0.258499 24 23
3.6745243 0.79391217 -0.4038083 44 12
3.772857 0.93133265 0.0073914644 21 59
3.6274567 1.0093409 -0.20784296 43 27
3.6895504 0.79648691 -0.35272476 44 16
3.6589508 1.01744 -0.15700582 35 34
3.7038906 0.79890811 -0.30129445 43 20
3.6655235 1.0192727 -0.10460737 35 42
3.7173984 0.80182374 -0.24952707 14 24
3.7402496 0.80538976 -0.19795403 37 28
3.7671533 0.81049883 -0.14597574 20 36
3.5734775 0.99159187 -0.35944045 24 15
3.7933571 0.81544769 -0.093271382 13 44
3.5877419 0.99488664 -0.308965 21 19
3.4863472 1.0892965 -0.4120602 42 11
3.7099142 0.9233284 -0.15143907 31 35
3.7261572 0.92737824 -0.09893994 24 43
3.5695188 0.88766223 -0.59250486 58 6
3.7079315 1.0387722 -0.052600469 43 50
3.7179081 1.0415746 0.00066758838 50 58
3.7464194 1.0495834 0.054496959 95 66
3.5965445 1.1217841 -0.16226767 50 33
3.607899 1.125338 -0.11044727 47 41
3.8200331 0.5868572 -0.29393336 44 21
3.8386214 0.58901924 -0.24138649 49 25
3.7628238 0.57540423 -0.47297662 33 9
3.7813573 0.57823038 -0.39759263 48 13
3.8013492 0.5805999 -0.34600526 45 17
3.7062352 0.67742449 -0.50120234 44 8
3.820281 0.46635711 -0.45799905 37 10
3.7988341 0.69159567 -0.19310388 38 29
3.6356041 0.77222377 -0.5402177 55 7
3.770803 0.91756773 -0.046303879 39 51
3.6132095 0.99246544 -0.25884694 27 23
3.6821353 0.78211427 -0.40434742 47 12
3.7858007 0.92052388 0.0074106632 25 59
3.6357715 0.99799746 -0.20812121 35 27
3.6971774 0.78463715 -0.35319445 14 16
3.6672966 1.0059867 -0.15721433 42 34
3.7115321 0.78700888 -0.3016946 37 20
3.673878 1.007797 -0.1047461 36 42
3.7250552 0.78987831 -0.24985757 17 24
3.6295915 1.1099156 -0.058403879 77 49
3.7528076 0.79439831 -0.19847564 20 28
3.7748475 0.79837859 -0.1461668 20 36
3.5865145 0.98174655 -0.36041453 23 15
3.79129 0.80116725 -0.093150094 17 44
3.605608 0.98631132 -0.31021756 26 19
3.494874 1.0785902 -0.41262624 20 11
3.7228184 0.91275626 -0.15183865 31 35
3.7342257 0.91555816 -0.09906996 26 43
3.582181 0.87754959 -0.59411055 41 6
3.711535 1.0258228 -0.052600469 46 50
3.7263396 1.0299257 0.00066846109 46 58
3.7307885 1.0311586 0.054214224 96 66
3.605211 1.1106985 -0.1624849 50 33
3.611805 1.1127372 -0.11044727 54 41
3.8220582 0.57351923 -0.29393336 44 21
3.7697163 0.56299675 -0.47359896 43 9
3.7833529 0.56502742 -0.39759263 54 13
3.8033528 0.5673272 -0.34600526 37 17
3.7134552 0.6653564 -0.50186795 39 8
3.8218853 0.45301902 -0.45799905 49 10
3.8110569 0.68008423 -0.19360806 35 29
3.6431201 0.76054007 -0.54094374 50 7
3.773983 0.90439957 -0.046303879 47 51
3.6214654 0.98115462 -0.25919482 32 23
3.6897087 0.77027297 -0.40488654 39 12
3.788991 0.90730345 0.0074106632 28 59
3.6488686 0.98791641 -0.20867768 37 27
3.699894 0.77172685 -0.35319445 14 16
3.6756074 0.99448752 -0.15742283 47 34
3.714257 0.77404839 -0.3016946 30 20
3.6821976 0.99627548 -0.10488484 39 42
3.7326736 0.77788913 -0.25018808 20 24
3.6621509 1.1059393 -0.058869865 91 49
3.7555578 0.78129375 -0.19847564 25 28
3.7825031 0.78621459 -0.14635786 29 36
3.5899196 0.96922135 -0.36041453 29 15
3.7989576 0.78894538 -0.093271382 20 44
3.6090288 0.97371942 -0.31021756 30 19
3.5033679 1.0678375 -0.41319221 26 11
3.7308373 0.9009304 -0.15203843 35 35
3.7422569 0.90369302 -0.099199966 32 43
3.5900195 0.86619973 -0.59491342 14 6
3.7199156 1.0141792 -0.05266941 46 50
3.729912 1.016912 0.00066846109 33 58
3.7584779 1.0247214 0.054567643 35 66
3.6138434 1.0995659 -0.16270211 49 33
3.6108873 1.0986632 -0.11029981 48 41
3.8240371 0.56017429 -0.29393336 43 21
3.7765679 0.55054814 -0.47422132 53 9
3.7902226 0.55253285 -0.39811438 50 13
3.8102376 0.5547629 -0.34645757 40 17
3.7157552 0.65239 -0.50186795 17 8
3.8283758 0.4402391 -0.4585954 56 10
3.8084884 0.66591758 -0.19335596 20 29
3.6505988 0.74881333 -0.54166985 45 7
3.7868478 0.89352071 -0.046424303 53 51
3.6296861 0.96979839 -0.25954276 41 23
3.6923749 0.75738883 -0.40488654 20 12
3.7970011 0.89522129 0.0074202628 34 59
3.6522946 0.97517335 -0.20867768 40 27
3.7074413 0.75980717 -0.3536641 20 16
3.6790562 0.98165107 -0.15742283 47 34
3.7218187 0.76207894 -0.3020947 25 20
3.6904807 0.98470795 -0.10502357 43 42
3.7353661 0.76485491 -0.25018808 23 24
3.6372514 1.0845495 -0.058403879 90 49
3.763154 0.7691803 -0.19873646 29 28
3.7901194 0.77400666 -0.14654893 36 36
3.593281 0.95668423 -0.36041453 38 15
3.8065858 0.77667969 -0.09339267 23 44
3.6172199 0.96240014 -0.31063509 40 19
3.5118299 1.0570387 -0.41375825 36 11
3.7291 0.88674402 -0.15183865 51 35
3.7453887 0.89062452 -0.099199966 42 43
3.6026235 0.85594869 -0.59651911 23 6
3.7234335 1.0011882 -0.05266941 46 50
3.7334392 1.003886 0.00066846109 36 58
3.747551 1.007691 0.054355595 38 66
3.6224422 1.0883868 -0.16291934 46 33
3.6242704 1.088938 -0.11059473 34 41
3.83584 0.54822904 -0.2946988 43 21
3.7784669 0.53736216 -0.47422132 29 9
3.7970521 0.53999728 -0.39863619 33 13
3.8170815 0.54215753 -0.34690985 39 17
3.7228937 0.6402548 -0.50253356 17 8
3.8348234 0.42741936 -0.45919174 57 10
3.8206341 0.65430391 -0.19386016 28 29
3.6580396 0.73704362 -0.54239595 43 7
3.7899439 0.88029677 -0.046424303 54 51
3.6426938 0.95967084 -0.26023859 46 23
3.704742 0.7464605 -0.40596479 25 12
3.8049729 0.88309419 0.0074298615 30 59
3.6653302 0.96496737 -0.20923415 39 27
3.7198308 0.74882734 -0.35460344 25 16
3.6824605 0.96880281 -0.15742283 44 34
3.729342 0.75006604 -0.30249485 29 20
3.6938956 0.97181982 -0.10502357 39 42
3.7477951 0.75378019 -0.25084907 28 24
3.6745768 1.0817624 -0.05894753 43 49
3.7707112 0.75702322 -0.19899726 40 28
3.7927978 0.76077193 -0.14654893 51 36
3.6014106 0.9454025 -0.36090159 42 15
3.8141747 0.76437038 -0.093513958 28 44
3.6205573 0.94976789 -0.31063509 49 19
3.5202584 1.0461936 -0.41432425 39 11
3.7419002 0.87600327 -0.15223822 47 35
3.7582071 0.87982804 -0.099459991 41 43
3.6200037 0.84674627 -0.59892768 23 6
3.7269053 0.98818481 -0.05266941 44 50
3.7417524 0.99213254 0.00066933373 25 58
3.7558768 0.99588817 0.054426275 35 66
3.6310067 1.0771608 -0.16313657 42 33
3.6328392 1.0777065 -0.11074218 32 41
3.8327923 0.53415006 -0.29431611 41 21
3.7901485 0.52552819 -0.47546598 47 9
3.8038397 0.5274207 -0.39915794 41 13
3.8238833 0.52951109 -0.34736216 20 17
3.7251058 0.62725556 -0.50253356 17 8
3.836292 0.41403073 -0.45919174 60 10
3.6654429 0.72523111 -0.54312205 27 7
3.7978671 0.86817825 -0.046484515 52 51
3.6460216 0.94694966 -0.26023859 48 23
3.707325 0.73352402 -0.40596479 26 12
3.6638448 0.9509095 -0.20895591 43 27
3.7224221 0.73583817 -0.35460344 23 16
3.6858196 0.95594281 -0.15742283 39 34
3.7368267 0.73801005 -0.30289495 34 20
3.6972651 0.95891982 -0.10502357 28 42
3.7504034 0.74069339 -0.25084907 31 24
3.6735311 1.0675294 -0.058869865 45 49
3.77823 0.74482286 -0.19925807 46 28
3.7125537 1.078208 -0.0060166852 86 57
3.8003328 0.74849421 -0.14674 49 36
3.619139 0.93657595 -0.36236274 47 15
3.8168197 0.75105184 -0.093513958 40 44
3.6334963 0.93962568 -0.31147015 49 19
3.5286543 1.0353026 -0.41489029 49 11
3.7400672 0.86181247 -0.15203843 51 35
3.7612555 0.86670411 -0.099459991 28 43
3.6229374 0.83410496 -0.59892768 28 6
3.735168 0.97643721 -0.05273835 43 50
3.7451928 0.9790653 0.00066933373 25 58
3.7593303 0.98277158 0.054426275 38 66
3.6347449 1.0644797 -0.16313657 34 33
3.6365793 1.0650189 -0.11074218 22 41
3.8445141 0.52210552 -0.29508156 28 21
3.7968764 0.51295704 -0.47608832 41 9
3.8105857 0.51480329 -0.39967972 33 13
3.8355784 0.51748753 -0.34826675 23 17
3.7321627 0.61505383 -0.50319916 20 8
3.8426518 0.40114906 -0.45978811 58 10
3.6728082 0.71337575 -0.54384816 29 7
3.8057516 0.85601503 -0.046544731 49 51
3.6541357 0.93545723 -0.26058647 31 23
3.7196219 0.72247547 -0.40704307 30 12
3.6719775 0.93935525 -0.20923415 34 27
3.734741 0.72473788 -0.35554281 28 16
3.6939735 0.94431174 -0.15763134 34 34
3.7442729 0.7259109 -0.30329511 41 20
3.7005899 0.94600809 -0.10502357 19 42
3.757864 0.72854781 -0.25117958 39 24
3.6820393 1.0560828 -0.05894753 40 49
3.7808068 0.73162985 -0.19925807 49 28
3.7018793 1.061095 -0.0059931208 96 57
3.8029222 0.73522401 -0.14674 51 36
3.6320279 0.92640382 -0.36333683 51 15
3.6415813 0.92817074 -0.31188765 49 19
3.5322471 1.0229791 -0.41489029 50 11
3.7527964 0.85096562 -0.152438 47 35
3.7642577 0.85356957 -0.099459991 39 43
3.6306396 0.82254595 -0.59973055 36 6
3.7385535 0.96339309 -0.05273835 31 50
3.7485876 0.96598613 0.00066933373 18 58
3.772419 0.97214496 0.054567643 22 66
3.6384382 1.0517856 -0.16313657 34 33
3.6450746 1.0537111 -0.11088964 20 41
3.7986438 0.49970031 -0.47608832 25 9
3.8172901 0.50214523 -0.4002015 31 13
3.8324242 0.50344914 -0.34781447 25 17
3.7489641 0.60438645 -0.50519598 23 8
3.8440285 0.38773328 -0.45978811 54 10
3.6752758 0.70055097 -0.54384816 33 7
3.8038354 0.8416431 -0.046484515 40 51
3.6477079 0.9202491 -0.25989065 35 23
3.7221212 0.70948714 -0.40704307 37 12
3.6752343 0.92653197 -0.20923415 33 27
3.7421379 0.71262878 -0.35601249 30 16
3.6972473 0.93141162 -0.15763134 32 34
3.7516801 0.71376872 -0.3036952 45 20
3.7087157 0.93430924 -0.10516232 19 42
3.7603843 0.71542597 -0.25117958 46 24
3.6857033 1.0432237 -0.05894753 41 49
3.7882428 0.71936005 -0.19951887 43 28
3.7248001 1.0536289 -0.0060245395 28 57
3.8103743 0.72287685 -0.14693108 47 36
3.6207638 0.91007042 -0.36187568 47 15
3.6399674 0.91423643 -0.31147015 45 19
3.5357962 1.0106431 -0.41489029 36 11
3.7557442 0.83786076 -0.152438 43 35
3.7720926 0.841515 -0.099590011 23 43
3.7467387 0.95157135 -0.05280729 33 50
3.7616274 0.95536363 0.00067107909 19 58
3.7709448 0.95773685 0.054496959 19 66
3.6372855 1.0377035 -0.16291934 32 33
3.6439259 1.0396051 -0.11074218 21 41
3.8052864 0.48706532 -0.47671065 25 9
3.8239524 0.48944655 -0.40072328 32 13
3.8489769 0.49195629 -0.34917134 28 17
3.7559462 0.59206742 -0.50586158 28 8
3.6776989 0.68771756 -0.54384816 49 7
3.8214047 0.83155537 -0.046665158 58 51
3.6557379 0.90871727 -0.26023859 34 23
3.724575 0.69649023 -0.40704307 52 12
3.6784463 0.9136973 -0.20923415 33 27
3.7397096 0.69864702 -0.35554281 39 16
3.7053235 0.91970694 -0.15783985 34 34
3.759048 0.70158362 -0.30409536 48 20
3.7168043 0.92256516 -0.10530104 20 42
3.7677629 0.70321143 -0.25151005 42 24
3.6941361 1.0317013 -0.059025194 44 49
3.7907307 0.70613229 -0.19951887 44 28
3.7140114 1.0365742 -0.0060009756 44 57
3.8177862 0.71048653 -0.14712214 36 36
3.6287479 0.89862573 -0.36236274 34 15
3.7041049 1.0337989 0.047211692 95 65
3.6479723 0.90272534 -0.31188765 35 19
3.5440822 0.99964809 -0.4154563 31 11
3.7684047 0.8268913 -0.15283757 20 35
3.7798884 0.82941616 -0.099720016 23 43
3.6025524 0.78976715 -0.59411055 36 6
3.7548866 0.93970406 -0.052876227 31 50
3.7649395 0.9422273 0.00067107909 22 58
3.6408854 1.0250007 -0.16291934 35 33
3.6234853 1.0200834 -0.11000489 25 41
3.8069632 0.47377944 -0.47671065 28 9
3.8305726 0.47670758 -0.40124506 37 13
3.8605542 0.47974187 -0.35007593 29 17
3.7579899 0.57895309 -0.50586158 30 8
3.6849432 0.67576891 -0.54457426 50 7
3.814507 0.81611514 -0.046544731 46 51
3.6637313 0.89714062 -0.26058647 35 23
3.7269835 0.68348479 -0.40704307 52 12
3.686461 0.90204144 -0.20951238 35 27
3.7470219 0.68648648 -0.35601249 48 16
3.7133634 0.90795732 -0.15804836 34 34
3.7614741 0.68845785 -0.30409536 47 20
3.7297106 0.9119665 -0.10557852 23 42
3.7751021 0.69095409 -0.25184056 30 24
3.6977148 1.0188003 -0.059025194 50 49
3.7931724 0.69289583 -0.19951887 41 28
3.7176073 1.0236034 -0.0060009756 44 57
3.8202431 0.69715571 -0.14712214 40 36
3.6366961 0.88713634 -0.36284977 34 15
3.7414241 1.0301861 0.047645397 97 65
3.6559415 0.89116949 -0.31230518 37 19
3.5571194 0.98994458 -0.41658834 33 11
3.7712681 0.81373209 -0.15283757 32 35
3.7925317 0.81832945 -0.099980049 16 43
3.6052871 0.77718711 -0.59411055 38 6
3.7629972 0.92779154 -0.052945167 40 50
3.7730591 0.93027973 0.00067195174 27 58
3.6540647 1.0149686 -0.1633538 45 33
3.6607232 1.0168252 -0.11103711 31 41
3.8085938 0.46048778 -0.47671065 30 9
3.8322132 0.46333349 -0.40124506 45 13
3.8622053 0.46626309 -0.35007593 30 17
3.764888 0.56656843 -0.50652719 43 8
3.692148 0.66377789 -0.54530036 54 7
3.671689 0.88551927 -0.26093441 26 23
3.7342391 0.67135125 -0.40758219 43 12
3.6895874 0.88916785 -0.20951238 37 27
3.7493954 0.67340279 -0.35601249 45 16
3.726222 0.89733577 -0.15846537 39 34
3.7687597 0.67620456 -0.30449545 40 20
3.7328711 0.89894187 -0.10557852 31 42
3.7774909 0.6777724 -0.25184056 14 24
3.7060719 1.0072023 -0.059102859 54 49
3.8004832 0.6805318 -0.19977969 20 28
3.7259815 1.0119355 -0.0060088299 40 57
3.8275714 0.68469673 -0.14731321 42 36
3.6446087 0.87560242 -0.36333683 23 15
3.7112322 1.0079144 0.047211692 97 65
3.6590297 0.87840247 -0.31230518 23 19
3.5653427 0.97884196 -0.41715434 21 11
3.7740855 0.80056292 -0.15283757 28 35
3.7953651 0.80508602 -0.099980049 25 43
3.6176331 0.76664799 -0.59571624 50 6
3.7662129 0.91465056 -0.052945167 46 50
3.7811415 0.91828698 0.00067282439 30 58
3.6624017 1.0035322 -0.16357102 52 33
3.6690691 1.0053662 -0.11118457 39 41
3.8298881 0.44949543 -0.47920001 33 9
3.8387461 0.4505313 -0.40176684 54 13
3.8737011 0.45393366 -0.35098052 45 17
3.7668431 0.55342305 -0.50652719 49 8
3.6944425 0.65088588 -0.54530036 55 7
3.6796098 0.87385315 -0.26128229 27 23
3.7365599 0.65831226 -0.40758219 42 12
3.6975255 0.8774395 -0.20979062 38 27
3.7566254 0.66117436 -0.35648215 40 16
3.7293317 0.88432336 -0.15846537 46 34
3.7661886 0.66218126 -0.30409536 34 20
3.7359862 0.88590622 -0.10557852 38 42
3.7847471 0.66544694 -0.25217107 17 24
3.7143929 0.99555856 -0.059180524 55 49
3.8077533 0.66812503 -0.2000405 25 28
3.729491 0.99892324 -0.0060088299 36 57
3.6524844 0.86402398 -0.36382386 24 15
3.7533529 1.0053394 0.047707353 46 65
3.6669216 0.86677426 -0.31272268 27 19
3.5735314 0.96769392 -0.41772035 22 11
3.7817473 0.78840572 -0.15303737 35 35
3.7981522 0.79183286 -0.099980049 25 43
3.6202872 0.75401539 -0.59571624 17 6
3.7742445 0.90266472 -0.053014107 50 50
3.789186 0.90624911 0.00067369704 40 58
3.6658823 0.99074197 -0.16357102 48 33
3.6773796 0.99386138 -0.11133202 36 41
3.8363636 0.43668294 -0.47982237 37 9
3.8452368 0.43768919 -0.40228862 52 13
3.7785625 0.54167598 -0.5078584 49 8
3.7015669 0.63882792 -0.54602647 55 7
3.6874936 0.86214262 -0.26163024 36 23
3.7486315 0.6469574 -0.40866047 30 12
3.7102866 0.86680567 -0.2103471 37 27
3.7638159 0.64890373 -0.35695183 20 16
3.7372594 0.87243915 -0.15867387 49 34
3.7783003 0.65072399 -0.30489561 27 20
3.7536552 0.8762787 -0.10599473 40 42
