# .PCD v0.7 - Point Cloud Data file format
VERSION 0.7
FIELDS x y z intensity ring
SIZE 4 4 4 4 2
TYPE F F F F U
COUNT 1 1 1 1 1
WIDTH 1199
HEIGHT 1
VIEWPOINT 0 0 0 1 0 0 0
POINTS 1199
DATA ascii
3.8855066 -0.037265632 -0.053083044 41 50
3.9058719 -0.037446912 0.0006754424 43 58
3.900486 -0.037398968 0.054638326 38 66
3.8516085 0.075587064 -0.16596051 40 33
3.9093356 -0.038160112 0.1088724 95 71
3.8635468 0.075832963 -0.11295408 31 41
3.7678251 -0.49375242 -0.28895792 34 21
3.7444386 -0.49333706 -0.4692426 54 9
3.7530963 -0.49448144 -0.39341843 33 13
3.7630293 -0.49646267 -0.34148234 28 17
3.7628589 -0.38499606 -0.50319916 30 8
3.7350097 -0.60757804 -0.45024645 55 10
3.8210762 -0.39365667 -0.1920955 28 29
3.7412271 -0.27527627 -0.54530036 54 7
3.8870614 -0.17132264 -0.046424303 43 51
3.8114676 -0.055900864 -0.26336977 45 23
3.7838793 -0.27840844 -0.40758219 44 12
3.8972938 -0.17245093 0.0074202628 35 59
3.8297415 -0.056824591 -0.21146004 37 27
3.7941051 -0.27982518 -0.35554281 31 16
3.8472996 -0.057744451 -0.15909089 46 34
3.7936702 -0.2804589 -0.30249485 40 20
3.8591442 -0.057913978 -0.10613347 28 42
3.7975159 -0.28074265 -0.24985757 50 24
3.8801103 0.054496966 -0.059724178 26 49
3.8204482 -0.2837756 -0.19821484 30 28
3.9255741 0.054494139 -0.0061109411 30 57
3.8377376 -0.2857309 -0.14578466 51 36
3.7926409 -0.058948405 -0.36772025 36 15
3.8493161 -0.28726691 -0.092786223 42 44
3.8023801 -0.059756696 -0.31564534 33 19
3.7662981 0.062651142 -0.42507857 37 11
3.8496163 -0.16295648 -0.15263779 54 35
3.8613617 -0.16344877 -0.099590011 44 43
3.8853528 -0.050828356 -0.053083044 37 50
3.9057174 -0.051080722 0.0006754424 42 58
3.9003317 -0.05101398 0.054638326 38 66
3.8518491 0.062141985 -0.16596051 38 33
3.9091785 -0.051806003 0.1088724 95 71
3.8587906 0.062260725 -0.11280662 33 41
3.771019 -0.50756866 -0.28934067 29 21
3.7426939 -0.50640458 -0.4692426 31 9
3.7513473 -0.50757915 -0.39341843 33 13
3.7612734 -0.5095951 -0.34148234 29 17
3.761492 -0.39812857 -0.50319916 36 8
3.732866 -0.62061197 -0.45024645 49 10
3.8196785 -0.40699232 -0.1920955 30 29
3.7402434 -0.28833389 -0.54530036 56 7
3.8814454 -0.18465446 -0.046364091 40 51
3.811249 -0.069205023 -0.26336977 36 23
3.7779279 -0.29123357 -0.40704307 57 12
3.8966682 -0.18605398 0.0074202628 35 59
3.8245282 -0.070104532 -0.2111818 36 27
3.7881422 -0.29268461 -0.35507312 44 16
3.8470745 -0.071173683 -0.15909089 41 34
3.7926681 -0.29369953 -0.30249485 49 20
3.8589184 -0.071384549 -0.10613347 33 42
3.8014867 -0.2943812 -0.25018808 54 24
3.8852761 0.041010112 -0.059801843 23 49
3.8194344 -0.29710972 -0.19821484 40 28
3.9007418 0.040507384 -0.0060716677 44 57
3.8367167 -0.29912537 -0.14578466 51 36
3.787437 -0.07209564 -0.36723319 36 15
3.885452 0.040333916 0.047707353 95 65
3.8433063 -0.30031309 -0.092664935 45 44
3.7971666 -0.072936937 -0.31522781 41 19
3.7714612 0.049574152 -0.42564461 40 11
3.8490238 -0.17639317 -0.15263779 47 35
3.8607676 -0.17692643 -0.099590011 28 43
3.8851521 -0.064390458 -0.053083044 37 50
3.9055154 -0.06471391 0.0006754424 33 58
3.8951309 -0.064548969 0.054567643 20 66
3.8520422 0.048696138 -0.16596051 31 33
3.8989792 -0.065290771 0.10859144 41 71
3.8589845 0.048790652 -0.11280662 27 41
3.7642863 -0.52004451 -0.28895792 32 21
3.7458169 -0.52015042 -0.46986493 31 9
3.7495527 -0.52067077 -0.39341843 37 13
3.7594719 -0.52272129 -0.34148234 29 17
3.7650054 -0.41179565 -0.50386477 52 8
3.7392144 -0.30138803 -0.54530036 57 7
3.8807771 -0.19820212 -0.046364091 36 51
3.8109841 -0.082508348 -0.26336977 36 23
3.7768886 -0.30441922 -0.40704307 58 12
3.8910012 -0.1994009 0.0074106632 35 59
3.8242602 -0.083454207 -0.2111818 23 27
3.7870972 -0.30590588 -0.35507312 45 16
3.8517973 -0.084708408 -0.1592994 34 34
3.7916198 -0.30693662 -0.30249485 51 20
3.8536491 -0.084747843 -0.10599473 26 42
3.7954636 -0.30724722 -0.24985757 44 24
3.8803964 0.027407579 -0.059724178 23 49
3.8133972 -0.3100363 -0.19795403 38 28
3.9008596 0.026891006 -0.0060716677 41 57
3.835649 -0.31251618 -0.14578466 53 36
3.7871618 -0.085315831 -0.36723319 36 15
3.9305646 0.027124317 0.048264973 99 65
3.8521991 -0.3145391 -0.092907511 45 44
3.7968888 -0.086191081 -0.31522781 36 19
3.7666438 0.036356103 -0.42507857 30 11
3.8483849 -0.1898277 -0.15263779 43 35
3.855134 -0.19015779 -0.099459991 28 43
3.879905 -0.077854924 -0.053014107 23 50
3.8952675 -0.078152582 0.00067369704 41 58
3.8998806 -0.078241959 0.054638326 20 66
3.8521888 0.035249706 -0.16596051 35 33
3.8737421 -0.078411877 0.10788903 67 71
3.8591313 0.035319988 -0.11280662 25 41
3.7439785 -0.53322256 -0.46986493 30 9
3.7477124 -0.53375596 -0.39341843 41 13
3.7625537 -0.53654617 -0.34193465 30 17
3.758621 -0.42437878 -0.50319916 60 8
3.7529283 -0.31568038 -0.54747868 58 7
3.8800614 -0.21174733 -0.046364091 27 51
3.8056867 -0.095688798 -0.26302189 25 23
3.7708495 -0.31718525 -0.40650395 43 12
3.8902817 -0.21298184 0.0074106632 33 59
3.8189552 -0.096680023 -0.21090357 20 27
3.7810462 -0.31870604 -0.35460344 38 16
3.8414898 -0.097905576 -0.15888238 34 34
3.7905252 -0.32016999 -0.30249485 51 20
3.8533297 -0.098199077 -0.10599473 23 42
3.7943678 -0.320494 -0.24985757 42 24
3.8804684 0.013862302 -0.059724178 28 49
3.8122916 -0.32334566 -0.19795403 46 28
3.9009295 0.013274305 -0.0060716677 40 57
3.8345346 -0.32590321 -0.14578466 54 36
3.7818663 -0.098409049 -0.36674616 28 15
3.8806393 0.013185767 0.047645397 59 65
3.846097 -0.32756037 -0.092786223 43 44
3.7965648 -0.099444166 -0.31522781 33 19
3.7667477 0.02320784 -0.42507857 32 11
3.8476985 -0.20325992 -0.15263779 43 35
3.8544464 -0.20361355 -0.099459991 25 43
3.8796096 -0.091397852 -0.053014107 26 50
3.8949709 -0.091749132 0.00067369704 35 58
3.8995836 -0.091854617 0.054638326 22 66
3.8522885 0.021802844 -0.16596051 43 33
3.859231 0.021848891 -0.11280662 29 41
3.7420943 -0.54628819 -0.46986493 34 9
3.7458262 -0.54683465 -0.39341843 47 13
3.760658 -0.54967666 -0.34193465 32 17
3.7571168 -0.43749627 -0.50319916 50 8
3.7518036 -0.32877862 -0.54747868 57 7
3.8792987 -0.22528999 -0.046364091 29 51
3.8053296 -0.10897253 -0.26302189 27 23
3.7697194 -0.33034605 -0.40650395 32 12
3.8285751 -0.11029059 -0.21146004 26 27
3.7749519 -0.33146772 -0.35413378 23 16
3.8411245 -0.11131428 -0.15888238 40 34
3.7893846 -0.33339942 -0.30249485 35 20
3.8529632 -0.1116491 -0.10599473 26 42
3.7981956 -0.33417341 -0.25018808 39 24
3.8804932 0.00031685364 -0.059724178 37 49
3.8111398 -0.33665109 -0.19795403 34 28
3.9009523 -0.00034256303 -0.0060716677 45 57
3.8333738 -0.33928624 -0.14578466 42 36
3.7864742 -0.1117529 -0.36723319 29 15
3.9156592 -0.00032972684 0.0480791 39 65
3.7961946 -0.11269605 -0.31522781 30 19
3.7717736 0.010077505 -0.42564461 36 11
3.8469656 -0.21668965 -0.15263779 34 35
3.8537123 -0.21706684 -0.099459991 26 43
3.879267 -0.10493965 -0.053014107 29 50
3.8946271 -0.10534456 0.00067369704 35 58
3.8942413 -0.10533439 0.054567643 25 66
3.8473458 0.0083400207 -0.16574328 48 33
3.8542862 0.0083618257 -0.11265916 37 41
3.7401645 -0.55934721 -0.46986493 36 9
3.7488122 -0.56064427 -0.39394018 43 13
3.7587161 -0.56280047 -0.34193465 48 17
3.7555666 -0.45060834 -0.50319916 42 8
3.7506332 -0.34187284 -0.54747868 55 7
3.878489 -0.2388299 -0.046364091 23 51
3.8148968 -0.1225683 -0.26371771 32 23
3.7685435 -0.34350279 -0.40650395 34 12
3.8281667 -0.12365415 -0.21146004 31 27
3.7737718 -0.34464276 -0.35413378 25 16
3.8457055 -0.12488028 -0.15909089 41 34
3.7881978 -0.34662482 -0.30249485 30 20
3.8575454 -0.12525651 -0.10613347 32 42
3.7970061 -0.34742954 -0.25018808 41 24
3.8804705 -0.013229136 -0.059724178 40 49
3.8149135 -0.35040841 -0.19821484 23 28
3.9009275 -0.013959968 -0.0060716677 42 57
3.8271909 -0.35220799 -0.1455936 38 36
3.7910345 -0.12513015 -0.36772025 32 15
3.920634 -0.01401156 0.048141059 52 65
3.8007581 -0.12610829 -0.31564534 35 19
3.771786 -0.0030885029 -0.42564461 44 11
3.8461857 -0.23011674 -0.15263779 31 35
3.8529313 -0.23051748 -0.099459991 28 43
3.8788772 -0.11848018 -0.053014107 37 50
3.8942356 -0.11893869 0.00067369704 45 58
3.8938501 -0.11892718 0.054567643 28 66
3.8473516 -0.0050903074 -0.16574328 54 33
3.8592896 -0.0050944751 -0.11280662 49 41
3.7381892 -0.57239944 -0.46986493 55 9
3.7419174 -0.57297194 -0.39341843 44 13
3.7616503 -0.57667404 -0.34238693 48 17
3.7539709 -0.46371499 -0.50319916 38 8
3.7494168 -0.35496292 -0.54747868 52 7
3.8726425 -0.25204426 -0.046303879 26 51
3.8094609 -0.13570994 -0.26336977 40 23
3.7673211 -0.35665539 -0.40650395 33 12
3.8277116 -0.13701618 -0.21146004 36 27
3.7775013 -0.35828286 -0.35460344 28 16
3.8452463 -0.13830353 -0.15909089 46 34
3.7820029 -0.35937524 -0.3020947 28 20
3.8570848 -0.13872108 -0.10613347 38 42
3.7908037 -0.36021024 -0.24985757 28 24
3.8754015 -0.026744759 -0.059646513 45 49
3.8136673 -0.36372277 -0.19821484 25 28
3.9008548 -0.027576661 -0.0060716677 41 57
3.8309119 -0.36603975 -0.14578466 38 36
3.7905743 -0.13836256 -0.36772025 42 15
3.9105618 -0.027635958 0.048017144 39 65
3.805274 -0.13955374 -0.31606284 41 19
3.7767198 -0.016271472 -0.42621061 50 11
3.8453591 -0.24354103 -0.15263779 43 35
3.852103 -0.24396533 -0.099459991 31 43
3.8784399 -0.13201927 -0.053014107 41 50
3.8937967 -0.13253139 0.00067369704 50 58
3.8934112 -0.13251853 0.054567643 33 66
3.8473103 -0.01852004 -0.16574328 56 33
3.8592482 -0.018565878 -0.11280662 49 41
3.7312677 -0.5846746 -0.4692426 54 9
3.7497194 -0.58757395 -0.39446199 46 13
3.7572448 -0.47744131 -0.50386477 20 8
3.7481549 -0.36804867 -0.54747868 38 7
3.8767271 -0.26590082 -0.046364091 34 51
3.8089638 -0.14900663 -0.26336977 45 23
3.7660532 -0.36980361 -0.40650395 31 12
3.8222213 -0.15018404 -0.2111818 45 27
3.7762275 -0.37146661 -0.35460344 28 16
3.8447402 -0.15172511 -0.15909089 49 34
3.7856855 -0.37306276 -0.30249485 29 20
3.8615716 -0.15237759 -0.10627221 44 42
3.794488 -0.37392896 -0.25018808 31 24
3.8802836 -0.040319391 -0.059724178 44 49
3.8123744 -0.37703276 -0.19821484 23 28
3.9007347 -0.041193016 -0.0060716677 41 57
3.8246386 -0.37891802 -0.1455936 38 36
3.7950408 -0.15178864 -0.36820731 45 15
3.9004426 -0.041190211 0.047893226 40 65
3.8047636 -0.15283576 -0.31606284 43 19
3.7766399 -0.029454585 -0.42621061 47 11
3.8395007 -0.25663123 -0.152438 47 35
3.8512282 -0.25741017 -0.099459991 31 43
3.8829515 -0.14574082 -0.053083044 42 50
3.8933103 -0.14612249 0.00067369704 51 58
3.8929248 -0.14610827 0.054567643 98 66
3.8522174 -0.031986162 -0.16596051 58 33
3.8591599 -0.032037057 -0.11280662 46 41
3.734102 -0.59848273 -0.46986493 54 9
3.7329164 -0.59829217 -0.39289665 47 13
3.7555554 -0.49055362 -0.50386477 28 8
3.7468476 -0.38112989 -0.54747868 36 7
3.8084207 -0.16230148 -0.26336977 48 23
3.7647395 -0.3829473 -0.40650395 32 12
3.8216739 -0.16352516 -0.2111818 51 27
3.7749078 -0.38464588 -0.35460344 30 16
3.844187 -0.16514485 -0.15909089 49 34
3.779402 -0.38576961 -0.3020947 30 20
3.8560224 -0.16564503 -0.10613347 46 42
3.7931597 -0.38717192 -0.25018808 37 24
3.8751204 -0.05379929 -0.059646513 38 49
3.8060679 -0.38983008 -0.19795403 28 28
3.9005675 -0.05480887 -0.0060716677 39 57
3.7895162 -0.16482216 -0.36772025 44 15
3.9002755 -0.054805048 0.047893226 38 65
3.8042071 -0.16611592 -0.31606284 45 19
3.7765143 -0.042637337 -0.42621061 48 11
3.8435652 -0.27038053 -0.15263779 52 35
3.8552923 -0.27120057 -0.099590011 37 43
3.8774235 -0.15909246 -0.053014107 43 50
3.8927763 -0.15971176 0.00067369704 49 58
3.8470871 -0.045378663 -0.16574328 56 33
3.8540273 -0.045453764 -0.11265916 39 41
3.7270951 -0.61070925 -0.4692426 49 9
3.7308054 -0.61131883 -0.39289665 47 13
3.7538204 -0.50366002 -0.50386477 29 8
3.7454944 -0.39420652 -0.54747868 49 7
3.8078308 -0.17559436 -0.26336977 47 23
3.7683234 -0.39660597 -0.40704307 36 12
3.82108 -0.17686431 -0.2111818 36 27
3.7685921 -0.3972992 -0.35413378 32 16
3.8435872 -0.17856255 -0.15909089 49 34
3.7780321 -0.39895985 -0.3020947 37 20
3.8554206 -0.17910405 -0.10613347 39 42
3.7868235 -0.39988697 -0.24985757 40 24
3.8799076 -0.067407683 -0.059724178 32 49
3.8046839 -0.40311337 -0.19795403 29 28
3.9003522 -0.068424053 -0.0060716677 39 57
3.7938886 -0.1782791 -0.36820731 48 15
3.9000602 -0.068419211 0.047893226 28 65
3.8036039 -0.17939408 -0.31606284 46 19
3.7763422 -0.055819571 -0.42621061 41 11
3.8376153 -0.28342953 -0.152438 54 35
3.8493371 -0.28429031 -0.099459991 42 43
3.8718498 -0.17240727 -0.052945167 40 50
3.8921952 -0.17329913 0.00067369704 45 58
3.8419106 -0.058735739 -0.16552605 39 33
3.8538451 -0.058906551 -0.11265916 30 41
3.7335525 -0.62516135 -0.39341843 43 13
3.7520394 -0.51676017 -0.50386477 31 8
3.7490134 -0.4078126 -0.54820472 54 7
3.8071947 -0.18888509 -0.26336977 46 23
3.766916 -0.40975747 -0.40704307 45 12
3.8204391 -0.1902013 -0.2111818 48 27
3.7770793 -0.41152859 -0.35507312 35 16
3.8429406 -0.1919781 -0.15909089 46 34
3.7815711 -0.41268519 -0.30249485 41 20
3.8497801 -0.192315 -0.10599473 28 42
3.7854047 -0.41310298 -0.24985757 56 24
3.8796487 -0.080950662 -0.059724178 28 49
3.8082173 -0.41693446 -0.19821484 30 28
3.8950903 -0.081938058 -0.0060638129 33 57
3.7932434 -0.19152117 -0.36820731 33 15
3.894799 -0.081932209 0.047831267 23 65
3.8029544 -0.19267005 -0.31606284 33 19
3.7761245 -0.069001131 -0.42621061 38 11
3.8366027 -0.29682359 -0.152438 53 35
3.8533051 -0.29810876 -0.099590011 48 43
3.8712244 -0.18592149 -0.052945167 38 50
3.8915668 -0.18688436 0.00067369704 45 58
3.8366878 -0.072057225 -0.16530882 39 33
3.8486192 -0.072269656 -0.11251169 32 41
3.7215455 -0.6365093 -0.39237487 42 13
3.7551193 -0.5305481 -0.50453037 37 8
3.7524834 -0.42144805 -0.54893082 58 7
3.8065121 -0.20217355 -0.26336977 37 23
3.7654629 -0.42290393 -0.40704307 60 12
3.819752 -0.20353594 -0.2111818 35 27
3.77562 -0.42471054 -0.35507312 48 16
3.842247 -0.20539127 -0.15909089 41 34
3.7801075 -0.42588279 -0.30249485 44 20
3.844094 -0.20548873 -0.10585599 34 42
3.7888973 -0.42687184 -0.25018808 58 24
3.8743443 -0.094375767 -0.059646513 26 49
3.7968152 -0.42910498 -0.19769323 35 28
3.8897822 -0.095416166 -0.0060559586 30 57
3.7826135 -0.20423137 -0.36723319 37 15
3.8994875 -0.095644884 0.047893226 21 65
3.7923081 -0.20541172 -0.31522781 37 19
3.7758605 -0.082181849 -0.42621061 38 11
3.8355434 -0.31021401 -0.152438 50 35
3.852241 -0.3115575 -0.099590011 47 43
3.8705518 -0.19943345 -0.052945167 25 50
3.8908906 -0.20046732 0.00067369704 40 58
3.846401 -0.085662037 -0.16574328 29 33
3.8483431 -0.085703403 -0.11251169 29 41
3.7532444 -0.54365265 -0.50453037 53 8
3.7509892 -0.43454415 -0.54893082 58 7
3.805783 -0.21545953 -0.26336977 29 23
3.7639635 -0.43604529 -0.40704307 62 12
3.8140342 -0.21658859 -0.21090357 24 27
3.7691698 -0.43731433 -0.35460344 48 16
3.8415065 -0.21880196 -0.15909089 30 34
3.7785978 -0.43907526 -0.30249485 54 20
3.8433533 -0.21890587 -0.10585599 30 42
3.787384 -0.44009498 -0.25018808 58 24
3.8739913 -0.10789917 -0.059646513 25 49
3.8894255 -0.10899346 -0.0060559586 29 57
3.7818775 -0.21743391 -0.36723319 36 15
3.8991299 -0.10925604 0.047893226 22 65
3.7965424 -0.21893142 -0.31564534 36 19
3.7705846 -0.095241047 -0.42564461 28 11
3.8344369 -0.32360068 -0.152438 46 35
3.8698323 -0.212943 -0.052945167 20 50
3.8410847 -0.09896417 -0.16552605 34 33
3.8530169 -0.09925995 -0.11265916 27 41
3.7513239 -0.5567506 -0.50453037 54 8
3.7445374 -0.44704908 -0.54820472 58 7
3.7950497 -0.22815122 -0.26267394 38 23
3.757483 -0.44859275 -0.40650395 58 12
3.8132546 -0.22990073 -0.21090357 21 27
3.7676201 -0.45046851 -0.35460344 42 16
3.8357329 -0.231912 -0.15888238 30 34
3.7770424 -0.45226237 -0.30249485 46 20
3.842566 -0.23232035 -0.10585599 24 42
3.785825 -0.45331275 -0.25018808 55 24
3.8735909 -0.12142127 -0.059646513 28 49
3.8890214 -0.12256942 -0.0060559586 36 57
3.7810957 -0.23063381 -0.36723319 36 15
3.8937273 -0.12271321 0.047831267 25 65
3.7907815 -0.23188178 -0.31522781 34 19
3.7751949 -0.1085401 -0.42621061 28 11
3.8382614 -0.33741885 -0.15263779 39 35
3.869065 -0.22644991 -0.052945167 23 50
3.8407161 -0.11237146 -0.16552605 43 33
3.8476512 -0.1125676 -0.11251169 30 41
3.754257 -0.5705871 -0.50519598 50 8
3.7429538 -0.46011725 -0.54820472 57 7
3.7992084 -0.24171025 -0.26302189 27 23
3.7558939 -0.4617061 -0.40650395 38 12
3.8174112 -0.2435244 -0.2111818 24 27
3.7660248 -0.46361721 -0.35460344 33 16
3.8348999 -0.2452998 -0.15888238 38 34
3.770494 -0.46483484 -0.3020947 47 20
3.8417315 -0.24573199 -0.10585599 28 42
3.7842193 -0.46652496 -0.25018808 55 24
3.8731439 -0.13494188 -0.059646513 36 49
3.8885696 -0.13614388 -0.0060559586 46 57
3.7802672 -0.24383086 -0.36723319 31 15
3.8932753 -0.1363041 0.047831267 28 65
3.7899492 -0.24511267 -0.31522781 27 19
3.7797585 -0.12187251 -0.42677665 32 11
3.8320844 -0.350362 -0.152438 37 35
3.8682513 -0.2399541 -0.052945167 25 50
3.8403003 -0.12577736 -0.16552605 47 33
3.8522298 -0.12615645 -0.11265916 38 41
3.721693 -0.4706997 -0.54530036 58 7
3.7983415 -0.25497049 -0.26302189 31 23
3.7542596 -0.47481379 -0.40650395 38 12
3.8115566 -0.25651646 -0.21090357 30 27
3.7643833 -0.47676027 -0.35460344 23 16
3.8340204 -0.25868458 -0.15888238 41 34
3.7737932 -0.47861984 -0.30249485 30 20
3.8458376 -0.25947359 -0.10599473 34 42
3.7875178 -0.48035854 -0.25051859 49 24
3.872649 -0.14846085 -0.059646513 41 49
3.8880706 -0.14971669 -0.0060559586 46 57
3.784358 -0.25735909 -0.36772025 30 15
3.8927755 -0.14989333 0.047831267 33 65
3.7940419 -0.25867602 -0.31564534 31 19
3.7793102 -0.1350656 -0.42677665 39 11
3.8358119 -0.36420652 -0.15263779 34 35
3.8673902 -0.25345534 -0.052945167 31 50
3.8448303 -0.13935784 -0.16574328 52 33
3.8517663 -0.13960247 -0.11265916 50 41
3.7200272 -0.48368797 -0.54530036 58 7
3.7974284 -0.26822764 -0.26302189 39 23
3.7525792 -0.48791572 -0.40650395 36 12
3.8106382 -0.26981971 -0.21090357 36 27
3.75776 -0.48925555 -0.35413378 20 16
3.8380771 -0.27241647 -0.15909089 44 34
3.7671571 -0.49114633 -0.3020947 25 20
3.8449082 -0.27289653 -0.10599473 39 42
3.8721073 -0.16197802 -0.059646513 45 49
3.8875246 -0.16328768 -0.0060559586 45 57
3.7834368 -0.27056739 -0.36772025 42 15
3.8922288 -0.16348074 0.047831267 96 65
3.7980855 -0.27227086 -0.31606284 41 19
3.7788155 -0.14825702 -0.42677665 48 11
3.8345172 -0.37759376 -0.15263779 38 35
3.8664818 -0.26695353 -0.052945167 26 50
3.8393285 -0.15258445 -0.16552605 54 33
3.8512554 -0.15304679 -0.11265916 47 41
3.713413 -0.49601611 -0.54457426 54 7
3.8014431 -0.28184676 -0.26336977 46 23
3.7508531 -0.50101167 -0.40650395 33 12
3.8146517 -0.28348616 -0.2111818 49 27
3.7609632 -0.50302881 -0.35460344 34 16
3.8321207 -0.28544459 -0.15888238 49 34
3.7654197 -0.50429314 -0.3020947 34 20
3.8389473 -0.28594831 -0.10585599 47 42
3.8715184 -0.17549323 -0.059646513 43 49
3.8869309 -0.17685668 -0.0060559586 42 57
3.7923944 -0.28450999 -0.36869434 45 15
3.7971122 -0.28552699 -0.31606284 43 19
3.7782753 -0.16144665 -0.42677665 48 11
3.8387725 -0.16598529 -0.16552605 57 33
3.8506978 -0.16648926 -0.11265916 46 41
3.711659 -0.50897533 -0.54457426 55 7
3.800436 -0.29511455 -0.26336977 47 23
3.7490814 -0.51410156 -0.40650395 34 12
3.8136387 -0.29680005 -0.2111818 52 27
3.7591844 -0.51615399 -0.35460344 30 16
3.8311009 -0.29881942 -0.15888238 49 34
3.7636364 -0.51743382 -0.3020947 28 20
3.8379259 -0.29934698 -0.10585599 50 42
3.8658879 -0.18876725 -0.059568845 38 49
3.8862896 -0.19042355 -0.0060559586 40 57
3.7864168 -0.29736006 -0.36820731 44 15
3.796092 -0.29877967 -0.31606284 44 19
3.7776885 -0.17463429 -0.42677665 48 11
3.8381698 -0.1793841 -0.16552605 55 33
3.8451004 -0.17970124 -0.11251169 41 41
3.6951628 -0.51986277 -0.54239595 50 7
3.7993832 -0.30837879 -0.26336977 50 23
3.7521865 -0.52787691 -0.40704307 36 12
3.8076036 -0.3097091 -0.21090357 34 27
3.75736 -0.52927279 -0.35460344 31 16
3.8350141 -0.31259301 -0.15909089 49 34
3.7618074 -0.53056824 -0.3020947 29 20
3.8368578 -0.31274199 -0.10585599 48 42
3.8652058 -0.20226058 -0.059568845 30 49
3.8856015 -0.20398806 -0.0060559586 40 57
3.7853558 -0.31057534 -0.36820731 48 15
3.79006 -0.3116239 -0.31564534 47 19
3.7720938 -0.18757802 -0.42621061 42 11
3.8375201 -0.1927807 -0.16552605 38 33
3.8444498 -0.19312203 -0.11251169 36 41
3.6933258 -0.53275824 -0.54239595 43 7
3.7933133 -0.32122186 -0.26302189 46 23
3.7503211 -0.54097134 -0.40704307 40 12
3.8015244 -0.32257959 -0.21062532 33 27
3.7554893 -0.54238516 -0.35460344 36 16
3.8289216 -0.32555807 -0.15888238 46 34
3.7599323 -0.54369617 -0.3020947 38 20
3.8357427 -0.32613325 -0.10585599 36 42
3.8644762 -0.21575144 -0.059568845 22 49
3.8848658 -0.21755008 -0.0060559586 38 57
3.7743318 -0.32294536 -0.36723319 43 15
3.7889497 -0.32485178 -0.31564534 35 19
3.7714159 -0.20074393 -0.42621061 37 11
3.8368242 -0.20617497 -0.16552605 37 33
3.8387616 -0.20627719 -0.11236424 33 41
3.7971375 -0.33489576 -0.26336977 41 23
3.7484097 -0.55405909 -0.40704307 44 12
3.8053486 -0.33628345 -0.21090357 35 27
3.7535734 -0.55549097 -0.35460344 50 16
3.8277619 -0.33892149 -0.15888238 36 34
3.829602 -0.33908314 -0.10571726 39 42
3.8636994 -0.22923966 -0.059568845 27 49
3.8840826 -0.23110949 -0.0060559586 57 57
3.7731817 -0.33611822 -0.36723319 30 15
3.782829 -0.33763623 -0.31522781 38 19
3.7706926 -0.21390741 -0.42621061 36 11
3.8360808 -0.21956672 -0.16552605 31 33
3.8380179 -0.2196757 -0.11236424 29 41
3.7959454 -0.34814817 -0.26336977 30 23
3.7464528 -0.5671401 -0.40704307 58 12
3.809123 -0.35001782 -0.2111818 36 27
3.7565331 -0.56933528 -0.35507312 50 16
3.8265557 -0.35228083 -0.15888238 34 34
3.8678658 -0.24303378 -0.059646513 23 49
3.7670298 -0.34883171 -0.36674616 28 15
3.7816274 -0.35083869 -0.31522781 36 19
3.7699227 -0.22706828 -0.42621061 30 11
3.8303046 -0.23265782 -0.16530882 33 33
3.8372281 -0.23307155 -0.11236424 29 41
3.7897415 -0.36092702 -0.26302189 28 23
3.7444506 -0.58021414 -0.40704307 60 12
3.8029082 -0.36284137 -0.21090357 26 27
3.7496037 -0.58168215 -0.35460344 52 16
3.8253026 -0.36563584 -0.15888238 35 34
3.862005 -0.25620759 -0.059568845 25 49
3.7707431 -0.36245161 -0.36723319 35 15
3.78038 -0.36403689 -0.31522781 36 19
3.7740653 -0.24053743 -0.42677665 28 11
3.8344545 -0.24634206 -0.16552605 35 33
3.836391 -0.24646458 -0.11236424 31 41
3.7884583 -0.37415347 -0.26302189 29 23
3.7424023 -0.59328127 -0.40704307 58 12
3.8016186 -0.37611374 -0.21090357 28 27
3.7524669 -0.59554672 -0.35507312 50 16
3.824003 -0.37898642 -0.15888238 26 34
3.866075 -0.27003044 -0.059646513 30 49
3.769455 -0.37561178 -0.36723319 33 15
3.7840445 -0.37772208 -0.31564534 30 19
3.7732029 -0.25370994 -0.42677665 31 11
3.8285873 -0.2593925 -0.16530882 46 33
3.8404939 -0.26018751 -0.11251169 43 41
3.7871296 -0.38737535 -0.26302189 31 23
3.730495 -0.60475159 -0.40596479 61 12
3.8002825 -0.38938162 -0.21090357 31 27
3.8176866 -0.39182577 -0.15867387 79 34
3.8651087 -0.28352392 -0.059646513 86 49
3.768121 -0.38876736 -0.36723319 40 15
3.7777464 -0.39041984 -0.31522781 33 19
3.7722943 -0.26687935 -0.42677665 39 11
3.8326414 -0.27310535 -0.16552605 50 33
3.8395622 -0.27359173 -0.11251169 54 41
3.7907145 -0.40111393 -0.26336977 37 23
3.7234571 -0.6169579 -0.40542567 58 12
3.803865 -0.40316737 -0.2111818 34 27
3.7716894 -0.40244263 -0.36772025 44 15
3.7763605 -0.40360424 -0.31522781 39 19
3.7713397 -0.28004548 -0.42677665 47 11
3.8316646 -0.28648213 -0.16552605 53 33
3.8385839 -0.28699267 -0.11251169 53 41
3.7892911 -0.41434354 -0.26336977 48 23
3.726182 -0.6307804 -0.40596479 59 12
3.7875457 -0.41482285 -0.2103471 58 27
3.7752082 -0.41614756 -0.36820731 46 15
3.7848341 -0.41787034 -0.31606284 44 19
3.770339 -0.29320818 -0.42677665 48 11
3.8256607 -0.29947042 -0.16530882 56 33
3.8325758 -0.30000493 -0.11236424 52 41
3.7878218 -0.42756808 -0.26336977 53 23
3.7141607 -0.64209116 -0.40488654 49 12
3.7959964 -0.42915601 -0.21090357 97 27
3.7737327 -0.42932296 -0.36820731 45 15
3.7833524 -0.43107933 -0.31606284 48 19
3.7692926 -0.30636734 -0.42677665 47 11
3.8245921 -0.31282261 -0.16530882 52 33
3.8414683 -0.31418636 -0.11265916 48 41
3.7863061 -0.44078746 -0.26336977 51 23
3.7895164 -0.4418292 -0.21062532 87 27
3.7722108 -0.44249314 -0.36820731 49 15
3.776876 -0.44370523 -0.31564534 52 19
3.7632496 -0.31910789 -0.42621061 43 11
3.823477 -0.32617104 -0.16530882 39 33
3.8353682 -0.32717377 -0.11251169 57 41
3.7797918 -0.45341089 -0.26302189 48 23
3.7657027 -0.45506439 -0.36772025 46 15
3.7753041 -0.45688629 -0.31564534 37 19
3.7670619 -0.33267429 -0.42677665 32 11
3.822315 -0.33951548 -0.16530882 39 33
3.7781861 -0.46660206 -0.26302189 44 23
3.7591529 -0.46759564 -0.36723319 36 15
3.7687416 -0.46944937 -0.31522781 39 19
3.7609301 -0.34537238 -0.42621061 36 11
3.8211069 -0.3528558 -0.16530882 31 33
3.7765346 -0.47978756 -0.26302189 37 23
3.7574975 -0.48071468 -0.36723319 38 15
3.7670798 -0.48260185 -0.31522781 36 19
3.7597015 -0.35849836 -0.42621061 39 11
3.8148789 -0.36571997 -0.1650916 32 33
3.7698901 -0.49232474 -0.26267394 81 23
3.7557967 -0.49382785 -0.36723319 37 15
3.765372 -0.49574849 -0.31522781 33 19
3.7584274 -0.37162 -0.42621061 30 11
3.8185503 -0.37952334 -0.16530882 32 33
3.7589819 -0.50759745 -0.36772025 37 15
3.7685568 -0.50955325 -0.31564534 31 19
3.757107 -0.3847371 -0.42621061 32 11
3.7522578 -0.52003604 -0.36723319 36 15
3.7618196 -0.52202344 -0.31522781 29 19
3.7606821 -0.39836791 -0.42677665 39 11
3.7553465 -0.53382754 -0.36772025 43 15
3.7599745 -0.53515154 -0.31522781 26 19
3.7592685 -0.41149271 -0.42677665 47 11
3.7534602 -0.54693288 -0.36772025 43 15
3.7630146 -0.54898882 -0.31564534 71 19
3.7578094 -0.42461252 -0.42677665 49 11
3.7515285 -0.56003153 -0.36772025 42 15
3.7563043 -0.43772709 -0.42677665 48 11
3.7495506 -0.5731234 -0.36772025 45 15
3.7498202 -0.45024905 -0.42621061 47 11
3.7475271 -0.58620828 -0.36772025 39 15
3.7482262 -0.4633356 -0.42621061 35 11
3.7503722 -0.60006881 -0.36820731 95 15
3.7465856 -0.47641653 -0.42621061 40 11
3.7448997 -0.4894917 -0.42621061 39 11
3.7480929 -0.50321698 -0.42677665 33 11
3.7463136 -0.51629722 -0.42677665 34 11
3.7444887 -0.52937114 -0.42677665 40 11
3.7426176 -0.54243857 -0.42677665 46 11
3.7407014 -0.55549949 -0.42677665 47 11
3.7387397 -0.56855357 -0.42677665 46 11
3.7367322 -0.58160079 -0.42677665 42 11
3.7346792 -0.59464085 -0.42677665 57 11
3.7325807 -0.6076737 -0.42677665 55 11
3.7304368 -0.62069911 -0.42677665 69 11
1.7152293 -0.98955262 -0.46892726 3 3
1.7329458 -0.95239466 -0.5581432 14 2
1.7128109 -0.94909883 -0.55261701 41 2
1.7220628 -0.96212012 -0.55676162 50 2
1.7019596 -0.95866919 -0.5512355 58 2
1.6944276 -0.96222568 -0.54985392 66 2
1.6868914 -0.96574122 -0.5484724 87 2
1.6835102 -0.97162378 -0.5484724 87 2
1.6801083 -0.9774943 -0.5484724 73 2
1.6642606 -0.97604275 -0.54432774 96 2
1.6608435 -0.98184615 -0.54432774 97 2
1.6574062 -0.98763758 -0.54432774 98 2
1.6539484 -0.99341702 -0.54432774 99 2
1.5407021 -0.99989772 -0.18259785 6 14
3.7878871 0.31385028 -0.2758176 43 22
3.7939312 0.30101568 -0.27618292 50 22
3.822289 0.30323753 -0.22499834 41 26
3.7899859 0.2873984 -0.2758176 51 22
3.818347 0.28952095 -0.22470269 42 26
3.7959402 0.27452198 -0.27618292 51 22
3.8193345 0.27619067 -0.22470269 49 26
3.7877033 0.26131204 -0.3277007 43 18
3.7968752 0.26126996 -0.27618292 51 22
3.8202753 0.26285699 -0.22470269 54 26
3.7836218 0.24776839 -0.32726666 43 18
3.7977643 0.24801481 -0.27618292 51 22
3.8161883 0.24919981 -0.22440702 49 26
3.8289595 0.2493501 -0.17194328 35 32
3.7844636 0.23455957 -0.32726666 45 18
3.7986066 0.23475663 -0.27618292 51 22
3.817035 0.23587731 -0.22440702 45 26
3.8298063 0.23598303 -0.17194328 46 32
3.7902319 0.22163375 -0.3277007 38 18
3.799403 0.22149558 -0.27618292 50 22
3.8178351 0.22255193 -0.22440702 36 26
3.8355937 0.22289799 -0.17216922 45 32
3.7710438 0.20798577 -0.37931928 33 14
3.7760611 0.20759651 -0.32639861 20 18
3.800153 0.20823185 -0.27618292 38 22
3.8185887 0.20922384 -0.22440702 14 26
3.8363483 0.2095079 -0.17216922 43 32
3.8583767 0.21001397 -0.1196356 36 40
3.7667785 0.19456942 -0.37881488 37 14
3.7817373 0.19466545 -0.32683262 23 18
3.8008568 0.19496557 -0.27618292 26 22
3.824281 0.19614398 -0.22470269 14 26
3.8420448 0.19636537 -0.17239517 28 32
3.8640776 0.19679381 -0.11979178 36 40
3.7724037 0.18165407 -0.37931928 23 14
3.7823939 0.18146354 -0.32683262 23 18
3.7965326 0.18146375 -0.2758176 25 22
3.8249421 0.18279357 -0.22470269 20 26
3.8476963 0.18318561 -0.17262112 23 32
3.8597488 0.18307254 -0.1196356 46 40
3.773015 0.16848482 -0.37931928 28 14
3.7830043 0.16825941 -0.32683262 25 18
3.8021252 0.16842604 -0.27618292 28 22
3.825557 0.1694409 -0.22470269 20 26
3.8483126 0.16975352 -0.17262112 28 32
3.8653574 0.16981289 -0.11979178 49 40
3.7686095 0.15511386 -0.37881488 30 14
3.7885458 0.15525228 -0.32726666 29 18
3.80269 0.15515313 -0.27618292 34 22
3.8311124 0.15628475 -0.22499834 32 26
3.8488812 0.15631938 -0.17262112 31 32
3.8659263 0.15631923 -0.11979178 51 40
3.8376172 0.26632717 -0.17904653 31 31
3.7790701 0.1423226 -0.37982368 38 14
3.7940423 0.1422085 -0.3277007 31 18
3.8032084 0.14187832 -0.27618292 48 22
3.8266466 0.14272957 -0.22470269 28 26
3.8494036 0.14288333 -0.17262112 39 32
3.8664484 0.14282368 -0.11979178 51 40
3.8927269 0.14376889 -0.066693231 51 48
3.8285558 0.25227991 -0.1785772 51 31
3.7745724 0.12896538 -0.37931928 53 14
3.7945156 0.12896395 -0.3277007 34 18
3.8086641 0.12876536 -0.27654824 49 22
3.8271215 0.1293712 -0.22470269 31 26
3.849879 0.12944552 -0.17262112 49 32
3.8669236 0.12932637 -0.11979178 53 40
3.8932052 0.13017985 -0.066693231 43 48
3.8393829 0.23952925 -0.17904653 55 31
3.7799718 0.11593646 -0.37982368 54 14
3.7949426 0.11571784 -0.3277007 39 18
3.8090906 0.11546987 -0.27654824 51 22
3.8275499 0.11601128 -0.22470269 48 26
3.8553002 0.11615172 -0.17284705 48 32
3.8673515 0.11582751 -0.11979178 42 40
3.8886387 0.11644443 -0.066606842 43 48
3.8352096 0.22583574 -0.17881188 40 31
3.7803533 0.10274118 -0.37982368 52 14
3.7953234 0.1024703 -0.3277007 43 18
3.8094704 0.10217295 -0.27654824 51 22
3.8279314 0.10264992 -0.22470269 42 26
3.8556819 0.10269351 -0.17284705 49 32
3.867732 0.10232724 -0.11979178 36 40
3.8890214 0.10286985 -0.066606842 42 48
3.8309875 0.21217427 -0.1785772 46 31
3.8530664 0.21338162 -0.12615186 20 39
3.8007309 0.31409127 -0.23700333 58 25
3.7757161 0.0894318 -0.37931928 34 14
3.7906785 0.089109398 -0.32726666 38 18
3.8048186 0.088763401 -0.27618292 51 22
3.8282664 0.089287326 -0.22470269 35 26
3.8560171 0.089234032 -0.17284705 49 32
3.8630693 0.088715814 -0.1196356 36 40
3.8843586 0.089184061 -0.066520452 28 48
3.8999238 0.088845409 -0.012817345 49 56
3.8317049 0.19880034 -0.1785772 31 31
3.8637693 0.20044149 -0.12648167 45 39
3.8067787 0.30121383 -0.23731641 58 25
3.776005 0.076251552 -0.37931928 28 14
3.7909663 0.075876921 -0.32726666 20 18
3.8051052 0.075481571 -0.27618292 49 22
3.8285549 0.075923637 -0.22470269 17 26
3.851311 0.075680204 -0.17262112 39 32
3.8633556 0.075230643 -0.1196356 35 40
3.8796482 0.075532101 -0.066434063 23 48
3.8952112 0.07513997 -0.012800763 46 56
3.8373642 0.18566187 -0.17881188 20 31
3.8544621 0.18647717 -0.12615186 54 39
3.7941427 0.28756243 -0.28934067 56 21
3.8028309 0.2875497 -0.23700333 59 25
3.7762482 0.063070364 -0.37931928 39 14
3.7961884 0.062720887 -0.3277007 20 18
3.8053455 0.062198814 -0.27618292 26 22
3.8287964 0.062559023 -0.22470269 20 26
3.8515518 0.06223616 -0.17262112 27 32
3.8635945 0.061744552 -0.1196356 35 40
3.8798881 0.061989132 -0.066434063 17 48
3.9004493 0.061616864 -0.012817345 45 56
3.8429787 0.17248631 -0.17904653 28 31
3.8600824 0.17324205 -0.12631677 54 39
3.7901509 0.27395934 -0.28895792 58 21
3.8087888 0.2746304 -0.23731641 43 25
3.7764454 0.049888417 -0.37931928 25 14
3.7914035 0.049409349 -0.32726666 20 18
3.8055394 0.048915301 -0.27618292 24 22
3.8240006 0.049134415 -0.22440702 23 26
3.85674 0.048849769 -0.17284705 23 32
3.8637867 0.048257716 -0.1196356 34 40
3.8800807 0.048445418 -0.066434063 20 48
3.9006402 0.048001379 -0.012817345 36 56
3.8435571 0.15907075 -0.17904653 31 31
3.8656561 0.15996994 -0.12648167 50 39
3.7960577 0.26106751 -0.28934067 43 21
3.8097241 0.26133355 -0.23731641 43 25
3.7765963 0.036705859 -0.37931928 25 14
3.8176446 0.26187351 -0.18472384 43 30
3.7915528 0.03617458 -0.32726666 20 18
3.805687 0.035631187 -0.27618292 28 22
3.8241487 0.035785861 -0.22440702 23 26
3.8518925 0.035345957 -0.17262112 25 32
3.8639314 0.034770288 -0.1196356 25 40
3.8852251 0.034941252 -0.066520452 23 48
3.9007843 0.034385309 -0.012817345 45 56
3.9205847 0.034540825 0.041360904 67 64
3.844089 0.14565328 -0.17904653 37 31
3.8611977 0.14628959 -0.12631677 46 39
3.7566104 0.14174311 -0.4472647 58 10
3.8878653 0.13912787 -0.073333979 55 47
3.7919712 0.24749264 -0.28895792 43 21
3.8106134 0.24803355 -0.23731641 43 25
3.7816761 0.023548899 -0.37982368 32 14
3.8135521 0.24822359 -0.18448047 41 30
3.7966371 0.02296458 -0.3277007 25 18
3.8057885 0.022346646 -0.27618292 33 22
3.8342328 0.022485655 -0.22499834 31 26
3.8569872 0.021923669 -0.17284705 31 32
3.8640292 0.02128244 -0.1196356 42 40
3.7828238 0.24358459 -0.34103006 54 17
3.8803244 0.021356387 -0.066434063 29 48
3.9008803 0.020768823 -0.012817345 50 56
3.9156816 0.020833408 0.041307669 54 64
3.8445742 0.13223401 -0.17904653 43 31
3.8616848 0.13281059 -0.12631677 43 39
3.7570822 0.12862922 -0.4472647 67 10
3.8833306 0.12539794 -0.073238865 42 47
3.7928119 0.23425467 -0.28895792 43 21
3.811456 0.23473053 -0.23731641 42 25
3.7817352 0.010348245 -0.37982368 36 14
3.8293495 0.23582494 -0.1852106 42 30
3.8016751 0.0097195292 -0.32813475 30 18
3.8108296 0.0090687927 -0.27654824 51 22
3.8342879 0.0091015492 -0.22499834 28 26
3.8520453 0.008454036 -0.17262112 39 32
3.8640802 0.0077943299 -0.1196356 38 40
3.7737105 0.22977754 -0.34012547 29 17
3.8853745 0.0078166323 -0.066520452 31 48
3.9009292 0.0071520815 -0.012817345 44 56
3.9157305 0.0071649998 0.041307669 47 64
3.8450124 0.11881313 -0.17904653 55 31
3.8621249 0.11932999 -0.12631677 43 39
3.7674325 0.11581179 -0.44845739 56 10
3.883745 0.11184181 -0.073238865 43 47
3.7936065 0.22101387 -0.28895792 42 21
3.8122518 0.22142464 -0.23731641 40 25
3.7817481 -0.0028530632 -0.37982368 49 14
3.8251634 0.22216912 -0.18496722 42 30
3.7967048 -0.0035418184 -0.3277007 34 18
3.810838 -0.0042340704 -0.27654824 51 22
3.8342962 -0.0042832014 -0.22499834 32 26
3.8520515 -0.0049926983 -0.17262112 48 32
3.859086 -0.0056822002 -0.11947942 45 40
3.7844322 0.21716978 -0.34103006 23 17
3.8853781 -0.0057464438 -0.066520452 33 48
3.9059305 -0.0064783785 -0.012833926 41 56
3.9107323 -0.0064909495 0.041254438 48 64
3.8503964 0.10552417 -0.17928119 51 31
3.8625178 0.10584793 -0.12631677 42 39
3.7628508 0.1025286 -0.44786105 54 10
3.8841114 0.098284334 -0.073238865 40 47
3.7943549 0.20777036 -0.28895792 32 21
3.8130016 0.20811604 -0.23731641 32 25
3.7817152 -0.016053809 -0.37982368 51 14
3.8209288 0.20854536 -0.18472384 34 30
3.8016503 -0.016821722 -0.32813475 47 18
3.8580999 0.20988314 -0.13299754 47 38
3.8108001 -0.017536353 -0.27654824 51 22
3.829267 -0.017639492 -0.22470269 46 26
3.8570051 -0.018467605 -0.17284705 48 32
3.8590429 -0.019152889 -0.11947942 48 40
3.7752225 0.20342669 -0.34012547 36 17
3.8853345 -0.01930891 -0.066520452 39 48
3.9058838 -0.02011258 -0.012833926 41 56
3.9106855 -0.020141913 0.041254438 39 64
3.8507414 0.092083126 -0.17928119 50 31
3.9147229 -0.021533117 0.095473833 43 70
3.8628638 0.092364579 -0.12631677 41 39
3.763186 0.089393184 -0.44786105 46 10
3.8744347 0.084514521 -0.073048629 28 47
3.7950571 0.19452433 -0.28895792 41 21
3.8950758 0.084950492 -0.019537672 54 55
3.8186886 0.19505736 -0.23762949 25 25
3.7866106 -0.029297771 -0.38032812 52 14
3.831609 0.19571188 -0.1852106 23 30
3.8015685 -0.030091856 -0.32813475 45 18
3.8538184 0.19616263 -0.13282391 54 38
3.8107157 -0.030838419 -0.27654824 54 22
3.8291821 -0.03100602 -0.22470269 42 26
3.8519225 -0.031884748 -0.17262112 48 32
3.7658021 0.19040143 -0.39185309 54 13
3.8589525 -0.032623347 -0.11947942 48 40
3.7808828 0.19049592 -0.34057775 33 17
3.8852434 -0.032871138 -0.066520452 31 48
3.9007902 -0.03369854 -0.012817345 40 56
3.9055917 -0.033744633 0.041201208 36 64
3.8510392 0.078640975 -0.17928119 43 31
3.9146237 -0.035197917 0.095473833 53 70
3.8631625 0.078880109 -0.12631677 42 39
3.773402 0.076450735 -0.44905373 35 10
3.8747063 0.070989698 -0.073048629 20 47
3.7957129 0.18127593 -0.28895792 26 21
3.8903496 0.071265489 -0.019512365 42 55
3.8193462 0.18172647 -0.23762949 20 25
3.7815111 -0.042454552 -0.37982368 36 14
3.8372576 0.18257116 -0.18545398 17 30
3.7964594 -0.043299899 -0.3277007 40 18
3.8594711 0.18294361 -0.13299754 48 38
3.8105848 -0.044140108 -0.27654824 55 22
3.8290503 -0.044372167 -0.22470269 37 26
3.8517878 -0.045330275 -0.17262112 47 32
3.7614768 0.17702353 -0.39133134 25 13
3.8538182 -0.04602886 -0.11932324 34 40
3.7765508 0.17706592 -0.34012547 23 17
3.8801062 -0.046368405 -0.066434063 28 48
3.9006491 -0.047314633 -0.012817345 38 56
3.9054503 -0.047377486 0.041201208 34 64
3.8462965 0.065116793 -0.17904653 33 31
3.9144771 -0.048862293 0.095473833 46 70
3.8584177 0.065313563 -0.12615186 38 39
3.7736456 0.063278645 -0.44905373 29 10
3.8749301 0.057464018 -0.073048629 24 47
3.7963226 0.16802531 -0.28895792 27 21
3.8955739 0.05775588 -0.019537672 42 55
3.8199575 0.16839337 -0.23762949 26 25
3.776366 -0.055576105 -0.37931928 28 14
3.8378718 0.16917552 -0.18545398 23 30
3.7962854 -0.056551754 -0.3277007 25 18
3.8600862 0.16947043 -0.13299754 44 38
3.8054214 -0.057361197 -0.27618292 42 22
3.8288722 -0.057737779 -0.22470269 17 26
3.846612 -0.058694176 -0.17239517 43 32
3.7720079 0.16432106 -0.39237487 36 13
3.8536339 -0.059480917 -0.11932324 36 40
3.7821207 0.16409595 -0.34057775 25 17
3.8799207 -0.059912223 -0.066434063 17 48
3.90046 -0.060930155 -0.012817345 33 56
3.905261 -0.061009765 0.041201208 17 64
3.8465002 0.051690318 -0.17904653 20 31
3.9142828 -0.062526062 0.095473833 43 70
3.8586221 0.051844772 -0.12615186 29 39
3.7688797 0.050043397 -0.44845739 30 10
3.8751073 0.043937638 -0.073048629 25 47
3.796886 0.15477264 -0.28895792 33 21
3.8957517 0.044157442 -0.019537672 36 55
3.8205218 0.15505819 -0.23762949 30 25
3.7761488 -0.068757743 -0.37931928 41 14
3.8384385 0.1557778 -0.18545398 30 30
3.7960646 -0.06980291 -0.3277007 23 18
3.8606541 0.15599518 -0.13299754 42 38
3.8051982 -0.070644245 -0.27618292 29 22
3.8186669 -0.070907556 -0.22411136 17 26
3.8363957 -0.071923994 -0.17194328 29 32
3.7675896 0.15095633 -0.39185309 49 13
3.8534026 -0.072932243 -0.11932324 37 40
3.7826703 0.15089288 -0.34057775 28 17
3.8796878 -0.073455304 -0.066434063 23 48
3.8952243 -0.074444577 -0.012800763 33 56
3.9050243 -0.074641295 0.041201208 20 64
3.8516517 0.038309418 -0.17928119 28 31
3.9140406 -0.076189086 0.095473833 37 70
3.8587797 0.038375355 -0.12615186 32 39
3.8823054 0.15211043 -0.079957046 48 46
3.7739954 0.036932297 -0.44905373 32 10
3.8273404 0.26213107 -0.19184341 32 29
3.8802364 0.0304465 -0.07314375 25 47
3.8023851 0.14170164 -0.28934067 41 21
3.8958821 0.030558463 -0.019537672 43 55
3.8210397 0.14172114 -0.23762949 39 25
3.780859 -0.082051389 -0.37982368 23 14
3.9157825 0.030017402 0.034536116 52 63
3.838959 0.14237821 -0.18545398 34 30
3.7957978 -0.083053231 -0.3277007 25 18
3.8611753 0.14251804 -0.13299754 43 38
3.799943 -0.083811566 -0.2758176 24 22
3.8183959 -0.084236763 -0.22411136 20 26
3.8361213 -0.085315071 -0.17194328 25 32
3.7730629 0.13798369 -0.39237487 58 13
3.8531249 -0.08638268 -0.11932324 34 40
3.7881503 0.13786697 -0.34103006 43 17
3.8794079 -0.086997487 -0.066434063 23 48
3.8899424 -0.087923191 -0.012784182 27 56
3.9047401 -0.088271916 0.041201208 20 64
3.8467674 0.024835641 -0.17904653 31 31
3.9137506 -0.089851171 0.095473833 25 70
3.8588901 0.024905466 -0.12615186 33 39
3.8828125 0.13855775 -0.079957046 52 46
3.7741013 0.02375837 -0.44905373 35 10
3.8182659 0.24812333 -0.19133921 51 29
3.8803189 0.016901759 -0.07314375 29 47
3.797874 0.12826182 -0.28895792 42 21
3.8959651 0.016959108 -0.019537672 51 55
3.8215113 0.12838235 -0.23762949 42 25
3.7855225 -0.095378771 -0.38032812 23 14
3.9158635 0.016348585 0.034536116 55 63
3.8394327 0.12897687 -0.18545398 45 30
3.7954848 -0.096302532 -0.3277007 28 18
3.8616493 0.12903915 -0.13299754 56 38
3.8046124 -0.097207606 -0.27618292 28 22
3.8230681 -0.09769734 -0.22440702 25 26
3.8457863 -0.098971844 -0.17239517 25 32
3.7735217 0.12481239 -0.39237487 58 13
3.8527997 -0.099832073 -0.11932324 28 40
3.7886083 0.12464301 -0.34103006 30 17
3.8790805 -0.10053863 -0.066434063 25 48
3.8896117 -0.10150109 -0.012784182 37 56
3.9094059 -0.10203671 0.041254438 25 64
3.8468306 0.011407766 -0.17904653 36 31
3.8934269 -0.10296437 0.0949817 25 70
3.863951 0.011446613 -0.12631677 45 39
3.8782761 0.12484458 -0.079853207 50 46
3.7741611 0.010584154 -0.44905373 38 10
3.829077 0.23540501 -0.19184341 40 29
3.8803544 0.0033568167 -0.07314375 31 47
3.8032815 0.11515275 -0.28934067 44 21
3.8960006 0.0033595497 -0.019537672 47 55
3.8219361 0.11504202 -0.23762949 52 25
3.7851665 -0.10859213 -0.38032812 30 14
3.910897 0.0026790272 0.034491614 43 63
3.8398595 0.11557397 -0.18545398 52 30
3.7951257 -0.10955065 -0.3277007 25 18
3.8670707 0.11570606 -0.13317117 53 38
3.8042498 -0.11048759 -0.27618292 32 22
3.8227038 -0.11104174 -0.22440702 25 26
3.7503512 0.110952 -0.46613091 58 9
3.8454175 -0.11239555 -0.17239517 31 32
3.7789049 0.1117845 -0.39289665 51 13
3.8524277 -0.11328024 -0.11932324 30 40
3.7939978 0.11156181 -0.34148234 32 17
3.873709 -0.11392673 -0.066347674 29 48
3.8942313 -0.11523044 -0.012800763 48 56
3.9040287 -0.11552978 0.041201208 30 64
3.8468471 -0.0020207837 -0.17904653 52 31
3.9030361 -0.11686312 0.095227763 29 70
3.8639674 -0.0020417003 -0.12631677 54 39
3.8786883 0.11130611 -0.079853207 39 46
3.7642467 -0.0025768536 -0.44786105 46 10
3.8298755 0.22203761 -0.19184341 28 29
3.8421807 0.22274928 -0.13846548 46 37
3.7885807 0.32958755 -0.24952707 43 24
3.8803427 -0.010188707 -0.07314375 33 47
3.8036606 0.10187612 -0.28934067 42 21
3.9009886 -0.010257172 -0.01956298 43 55
3.8223143 0.10170027 -0.23762949 44 25
3.7847643 -0.12180416 -0.38032812 36 14
3.9108825 -0.010972567 0.034491614 40 63
3.8402395 0.10216966 -0.18545398 45 30
3.7996986 -0.12296347 -0.32813475 31 18
3.867451 0.10220675 -0.13317117 42 38
3.8088245 -0.12393329 -0.27654824 41 22
3.8272815 -0.12455202 -0.22470269 30 26
3.7556751 0.097987451 -0.46675327 37 9
3.8450017 -0.12581787 -0.17239517 37 32
3.7792721 0.098592997 -0.39289665 47 13
3.8570035 -0.12689622 -0.11947942 38 40
3.794364 0.098317601 -0.34148234 51 17
3.8732877 -0.1274478 -0.066347674 31 48
3.8938053 -0.12882313 -0.012800763 49 56
3.9036014 -0.12915666 0.041201208 31 64
3.8468165 -0.015448773 -0.17904653 55 31
3.8539422 -0.015482353 -0.12598696 58 39
3.8790534 0.09776628 -0.079853207 35 46
3.7691791 -0.015740771 -0.44845739 56 10
3.8997867 0.098280236 -0.026308559 47 54
3.8306272 0.2086675 -0.19184341 41 29
3.8479242 0.2096073 -0.13864696 54 37
3.7996516 0.31719238 -0.25018808 57 24
3.875284 -0.023699539 -0.073048629 40 47
3.8039927 0.088598251 -0.28934067 42 21
3.9009287 -0.0238741 -0.01956298 43 55
3.8226461 0.088357285 -0.23762949 39 25
3.7892871 -0.135197 -0.38083252 47 14
3.9058206 -0.024589121 0.034447107 39 63
3.8405728 0.088764094 -0.18545398 51 30
3.804224 -0.13640954 -0.32856879 34 18
3.8627889 0.088593721 -0.13299754 41 38
3.8083687 -0.13722783 -0.27654824 46 22
3.8218355 -0.13772634 -0.22440702 32 26
3.7559946 0.084877096 -0.46675327 31 9
3.8445389 -0.13923866 -0.17239517 49 32
3.7746217 0.085290052 -0.39237487 43 13
3.8515429 -0.14017229 -0.11932324 47 40
3.789706 0.084962711 -0.34103006 20 17
3.877815 -0.14115401 -0.066434063 32 48
3.8883355 -0.1422267 -0.012784182 52 56
3.8931344 -0.14240685 0.041094743 33 64
3.8517337 -0.028917545 -0.17928119 50 31
3.8538649 -0.028935028 -0.12598696 48 39
3.8743732 0.084118828 -0.079749368 32 46
3.7691011 -0.028897567 -0.44845739 52 10
3.8951073 0.084560394 -0.026274525 49 54
3.8263454 0.19504134 -0.19159132 17 29
3.8486326 0.19617426 -0.13864696 49 37
3.7907894 0.30313042 -0.24952707 43 24
3.880177 -0.037278142 -0.07314375 41 47
3.8042791 0.075319298 -0.28934067 33 21
3.8958223 -0.037439253 -0.019537672 43 55
3.8229313 0.07501322 -0.23762949 35 25
3.7887921 -0.14842325 -0.38083252 52 14
3.9007115 -0.038170472 0.034402601 39 63
3.8408592 0.075357459 -0.18545398 38 30
3.7987475 -0.14948717 -0.32813475 47 18
3.8630745 0.075109527 -0.13299754 45 38
3.8078666 -0.15052067 -0.27654824 50 22
3.8263185 -0.15126823 -0.22470269 48 26
3.7612281 0.071858354 -0.46737558 28 9
3.8440297 -0.15265778 -0.17239517 49 32
3.7748966 0.072113641 -0.39237487 41 13
3.8510301 -0.15361582 -0.11932324 45 40
3.7899795 0.071733646 -0.34103006 23 17
3.8723035 -0.15448512 -0.066347674 38 48
3.8878155 -0.15579866 -0.012784182 42 56
3.9026046 -0.15640558 0.041201208 40 64
3.8466148 -0.042304024 -0.17904653 50 31
3.8537402 -0.042387351 -0.12598696 48 39
3.8746431 0.070594229 -0.079749368 17 46
3.7689774 -0.042054009 -0.44845739 49 10
3.8953786 0.070963413 -0.026274525 48 54
3.8369789 0.18215594 -0.1920955 17 29
3.8492937 0.18273884 -0.13864696 46 37
3.8017731 0.29065832 -0.25018808 46 24
3.8700254 -0.050684396 -0.072953515 25 47
3.8045187 0.062039431 -0.28934067 27 21
3.8956678 -0.051037978 -0.019537672 40 55
3.8231697 0.061668243 -0.23762949 23 25
3.7832813 -0.16143073 -0.38032812 54 14
3.9005544 -0.051786266 0.034402601 31 63
3.8410988 0.061949894 -0.18545398 17 30
3.7982028 -0.16274635 -0.32813475 45 18
3.8633132 0.06162443 -0.13299754 34 38
3.802336 -0.16359244 -0.27618292 51 22
3.8207805 -0.1644042 -0.22440702 42 26
3.761456 0.058728777 -0.46737558 30 9
3.8434732 -0.16607501 -0.17239517 49 32
3.7751253 0.058936354 -0.39237487 42 13
3.8454781 -0.16683602 -0.11916705 38 40
3.7951858 0.058578447 -0.34148234 33 17
3.8717408 -0.16800106 -0.066347674 30 48
3.8872478 -0.16936871 -0.012784182 40 56
3.8920453 -0.16958238 0.041094743 42 64
3.8464437 -0.055730954 -0.17904653 43 31
3.8535688 -0.055839151 -0.12598696 42 39
3.874866 0.057068773 -0.079749368 17 46
3.7737713 -0.05528618 -0.44905373 37 10
3.8956027 0.057365574 -0.026274525 39 54
3.8425801 0.16897994 -0.19234759 23 29
3.8598921 0.16973884 -0.13900991 43 37
3.7840018 0.2760146 -0.3016946 57 20
3.8027647 0.27738586 -0.25018808 49 24
3.8698251 -0.064193003 -0.072953515 23 47
3.8047121 0.048758801 -0.28934067 25 21
3.8954661 -0.064636089 -0.019537672 36 55
3.8233616 0.048322514 -0.23762949 22 25
3.7826946 -0.17463586 -0.38032812 35 14
3.9003499 -0.065401427 0.034402601 23 63
3.8412917 0.048541583 -0.18545398 20 30
3.7976115 -0.17600358 -0.32813475 40 18
3.8635046 0.048138574 -0.13299754 39 38
3.8067229 -0.1771007 -0.27654824 55 22
3.8768022 0.16166782 -0.086562432 48 45
3.8201835 -0.1777402 -0.22440702 39 26
3.7616382 0.045598488 -0.46737558 32 9
3.8378811 -0.17925231 -0.17216922 47 32
3.7802804 0.0458165 -0.39289665 32 13
3.844872 -0.18025823 -0.11916705 36 40
3.7903879 0.045273062 -0.34103006 23 17
3.8711305 -0.18151492 -0.066347674 33 48
3.8866329 -0.18293673 -0.012784182 39 56
3.8362389 -0.06897068 -0.1785772 32 31
3.8483541 -0.069196962 -0.12582205 39 39
3.8750415 0.043542616 -0.079749368 17 46
3.7735553 -0.068458766 -0.44905373 28 10
3.8957791 0.043767031 -0.026274525 28 54
3.9157679 0.04398334 0.027764458 50 62
3.8431466 0.15556578 -0.19234759 29 29
3.8604612 0.15626425 -0.13900991 43 37
3.7899141 0.26315022 -0.3020947 60 20
3.80371 0.26411009 -0.25018808 49 24
3.8218634 0.2640326 -0.19821484 54 28
3.8695774 -0.077700824 -0.072953515 25 47
3.8048589 0.035477582 -0.28934067 26 21
3.8902178 -0.078129575 -0.019512365 43 55
3.8235071 0.034976196 -0.23762949 25 25
3.7770936 -0.18758719 -0.37982368 29 14
3.9000976 -0.079015791 0.034402601 23 63
3.8364434 0.035089094 -0.1852106 23 30
3.7919991 -0.18900573 -0.3277007 25 18
3.8586524 0.034609396 -0.13282391 34 38
3.8060815 -0.19038756 -0.27654824 43 22
3.8823376 0.1483244 -0.086674988 55 45
3.81954 -0.19107404 -0.22440702 23 26
3.7667356 0.032508343 -0.46799794 35 9
3.8372321 -0.19264792 -0.17216922 37 32
3.7804174 0.032620579 -0.39289665 30 13
3.8492105 -0.19393457 -0.11932324 36 40
3.7905228 0.032041863 -0.34103006 25 17
3.8704734 -0.19502659 -0.066347674 17 48
3.8859706 -0.19650248 -0.012784182 36 56
3.8309813 -0.082250535 -0.17834255 23 31
3.848089 -0.0826298 -0.12582205 31 39
