# .PCD v0.7 - Point Cloud Data file format
VERSION 0.7
FIELDS x y z intensity ring
SIZE 4 4 4 4 2
TYPE F F F F U
COUNT 1 1 1 1 1
WIDTH 1239
HEIGHT 1
VIEWPOINT 0 0 0 1 0 0 0
POINTS 1239
DATA ascii
4.1655364 0.75781131 -0.13119309 41 40
4.0798259 0.99319309 -0.37811819 17 17
4.1915331 0.76251698 -0.072999716 28 48
4.2070241 0.76456249 -0.014060942 41 56
4.1492467 0.87939149 -0.19758478 34 31
4.1662126 0.88297611 -0.13934422 38 39
4.1691723 1.0118251 -0.088368118 13 46
4.0565338 0.85906339 -0.4937802 25 10
4.1942649 1.0179048 -0.029133409 43 54
4.1142321 1.1268549 -0.21352349 14 29
4.136014 1.1328177 -0.15443529 42 37
4.0619364 1.2397481 -0.27894151 50 24
4.1891274 0.87865502 -0.080752976 17 47
4.1016922 0.98714119 -0.32110688 23 21
4.2045083 0.8818711 -0.021562301 43 55
4.125237 0.99203646 -0.26392838 17 25
4.0897903 0.73230946 -0.41765475 28 14
4.2143388 0.88315874 0.038007531 17 63
4.1332779 0.99396688 -0.20541096 14 30
4.1100378 0.73517585 -0.36068779 23 18
4.1552768 0.99848127 -0.14723487 28 38
4.1195846 0.73613286 -0.30394733 43 22
4.1381073 0.7394256 -0.24687727 17 26
4.0585027 0.97376752 -0.51902962 29 9
4.1559839 0.7418552 -0.18934096 38 32
4.0630603 0.97485924 -0.43463865 36 13
4.1681561 0.74326622 -0.13119309 36 40
4.0784249 0.97778666 -0.37766588 23 17
4.1843243 0.74613458 -0.072826929 14 48
4.2145901 0.75074518 -0.014077523 40 56
4.1474013 0.86388719 -0.19735011 14 31
4.1643767 0.86741197 -0.13917932 32 39
4.1726785 0.99726576 -0.088368118 14 46
4.0595078 0.84489822 -0.4937802 25 10
4.1929288 1.0020975 -0.029099379 39 54
4.1181402 1.1124867 -0.21352349 19 29
4.1302943 1.1157683 -0.15407233 52 37
4.0662394 1.2255617 -0.27894151 41 24
4.1921692 0.86402678 -0.080752976 17 47
4.1002622 0.97166991 -0.32072419 28 21
4.207561 0.86718917 -0.021562301 29 55
4.1238189 0.97648263 -0.26361534 23 25
4.0923219 0.71802896 -0.41765475 25 14
4.2222939 0.86944795 0.038052037 20 63
4.1367226 0.97953296 -0.20541096 23 30
4.1076722 0.71996921 -0.36025378 25 18
4.1538739 0.982822 -0.14706126 25 38
4.1172161 0.72089273 -0.30358201 25 22
4.1406631 0.72497642 -0.24687727 17 26
4.0522194 0.95731711 -0.51778495 30 9
4.1585484 0.7273435 -0.18934096 20 32
4.0664387 0.96067053 -0.43463865 32 13
4.1707253 0.72871214 -0.13119309 35 40
4.0818129 0.96354431 -0.37766588 25 17
4.186903 0.73152399 -0.072826929 17 48
4.2073331 0.73431832 -0.014044361 38 56
4.1503911 0.84940475 -0.19735011 20 31
4.1624823 0.85187131 -0.13901441 31 39
4.1761351 0.98269427 -0.088368118 20 46
4.0624323 0.83072269 -0.4937802 25 10
4.1964021 0.98745537 -0.029099379 40 54
4.1219983 1.098105 -0.21352349 23 29
4.1389928 1.1026299 -0.15425381 40 37
4.0657105 1.2099369 -0.278611 47 24
4.1902595 0.84839922 -0.080657862 20 47
4.1036291 0.95735145 -0.32072419 32 21
4.2056618 0.85150772 -0.021536995 33 55
4.1223421 0.96095091 -0.26330224 29 25
4.0948029 0.70373976 -0.41765475 37 14
4.2154999 0.85272753 0.037963025 20 63
4.135252 0.96395522 -0.20516758 29 30
4.1101604 0.70562643 -0.36025378 25 18
4.1572795 0.96831626 -0.14706126 35 38
4.1246233 0.70735508 -0.30394733 31 22
4.1769834 1.102602 -0.096468136 40 45
4.1431684 0.71051842 -0.24687727 23 26
4.0507035 0.9420445 -0.51716256 34 9
4.1610618 0.71282309 -0.18934096 25 32
4.069767 0.94647014 -0.43463865 37 13
4.1683168 0.71331054 -0.13103691 23 40
4.0851517 0.94929028 -0.37766588 37 17
4.1943593 0.7177434 -0.072913326 17 48
4.1582279 0.83589321 -0.19758478 29 31
4.1654305 0.83733636 -0.13901441 30 39
4.1844096 0.96923709 -0.088471949 20 46
4.0653071 0.81653714 -0.4937802 28 10
4.1998229 0.97280121 -0.029099379 43 54
4.2095551 0.9750517 0.030662553 42 62
4.1258068 1.08371 -0.21352349 31 29
4.1428165 1.0881755 -0.15425381 40 37
4.0514388 1.1903085 -0.33610538 53 20
4.084269 1.1999584 -0.27960253 47 24
4.1024117 1.2037358 -0.22142684 52 28
4.1931953 0.83376729 -0.080657862 28 47
4.106946 0.94302124 -0.32072419 37 21
4.2086086 0.83682203 -0.021536995 43 55
4.1256709 0.94655538 -0.26330224 37 25
4.0923281 0.68862087 -0.41715032 36 14
4.218451 0.83800745 0.037963025 23 63
4.1385913 0.94951457 -0.20516758 34 30
4.1175108 0.69209617 -0.36068779 32 18
4.1606345 0.95379877 -0.14706126 47 38
4.1270671 0.69295317 -0.30394733 30 22
4.1662927 1.08424 -0.096130446 46 45
4.1456232 0.69605172 -0.24687727 23 26
4.0539675 0.92789912 -0.51716256 42 9
4.1585979 0.6974721 -0.18911502 31 32
4.0730462 0.93225825 -0.43463865 46 13
4.1757112 0.69957745 -0.13119309 42 40
4.0884404 0.93502468 -0.37766588 43 17
4.1820459 0.70063299 -0.072654158 23 48
4.15622 0.82040912 -0.19735011 36 31
4.1683283 0.82279116 -0.13901441 40 39
4.1828933 0.95351571 -0.088368118 28 46
4.0681329 0.80234164 -0.4937802 30 10
4.1983175 0.95702565 -0.029065343 46 54
4.2080579 0.95924217 0.030626774 43 62
4.1295643 1.0693015 -0.21352349 45 29
4.1465898 1.0737077 -0.15425381 40 37
4.0555692 1.1761589 -0.33610538 39 20
4.0884333 1.1856943 -0.27960253 46 24
4.1065893 1.1894083 -0.22142684 47 28
4.1960802 0.81912524 -0.080657862 32 47
4.1053495 0.92758274 -0.32034144 42 21
4.2065959 0.82117122 -0.021511687 50 55
4.1240816 0.93105119 -0.26298916 49 25
4.0947075 0.67433184 -0.41715032 43 14
4.2115355 0.82136929 0.037874017 25 63
4.1370087 0.93396455 -0.20492421 47 30
4.1100707 0.67611104 -0.35981974 40 18
4.1590633 0.93817186 -0.14688763 47 38
4.1245394 0.67773861 -0.30358201 46 22
4.1748948 1.0709318 -0.096243016 48 45
4.1431022 0.68077171 -0.24658163 29 26
4.0571818 0.91374248 -0.51716256 49 9
4.1560774 0.68214697 -0.18888907 37 32
4.0714235 0.91694421 -0.43411687 48 13
4.1781273 0.68499726 -0.13119309 37 40
4.0868211 0.9196564 -0.37721363 42 17
4.2042022 0.6892485 -0.072999716 25 48
4.1541543 0.80494916 -0.19711544 48 31
4.1662688 0.80728859 -0.13884951 43 39
4.1813173 0.93781656 -0.088264279 36 46
4.0709085 0.78813624 -0.4937802 47 10
4.2016325 0.94236493 -0.029065343 45 54
4.2113805 0.94454741 0.030626774 41 62
4.1284332 1.0536458 -0.21327139 46 29
4.1503124 1.0592268 -0.15425381 39 37
4.0644417 1.1633674 -0.3365055 42 20
4.0877504 1.1700424 -0.27927202 46 24
4.1059146 1.1736934 -0.22116603 40 28
4.1940036 0.80353564 -0.080562755 39 47
4.108562 0.91324669 -0.32034144 40 21
4.2094364 0.80648243 -0.021511687 54 55
4.1224346 0.91556966 -0.26267606 42 25
4.0970359 0.66003448 -0.41715032 51 14
4.2192879 0.80760008 0.037918519 29 63
4.1353683 0.91843706 -0.20468083 47 30
4.1124058 0.66176009 -0.35981974 48 18
4.1574335 0.92256755 -0.146714 49 38
4.1268806 0.66333717 -0.30358201 46 22
4.1737609 1.0551275 -0.096130446 33 45
4.1405244 0.66551769 -0.24628596 35 26
4.0555029 0.89850348 -0.51654029 49 9
4.1633658 0.66842282 -0.18911502 47 32
4.0697441 0.90165287 -0.43359509 48 13
4.1755576 0.66962171 -0.13103691 44 40
4.0900064 0.90538514 -0.37721363 43 17
4.1818976 0.67063272 -0.072567761 29 48
4.1520319 0.78951365 -0.19688077 47 31
4.1690612 0.79274064 -0.13884951 44 39
4.1796842 0.9221403 -0.088160433 40 46
4.0736351 0.77392137 -0.4937802 51 10
4.2000136 0.9266175 -0.029031308 46 54
4.2097692 0.92876595 0.030590996 41 62
4.1320858 1.0392286 -0.21327139 40 29
4.1491375 1.0435148 -0.15407233 39 37
4.0636816 1.1478174 -0.33610538 41 20
4.0918097 1.1557664 -0.27927202 42 24
4.1099868 1.1593539 -0.22116603 42 28
4.1918693 0.78797048 -0.080467634 42 47
4.1117253 0.89889961 -0.32034144 39 21
4.2122264 0.79178387 -0.021511687 48 55
4.1256051 0.90117413 -0.26267606 48 25
4.0944009 0.64495957 -0.41664594 47 14
4.2122521 0.79102772 0.037829511 37 63
4.1434283 0.90506023 -0.20492421 41 30
4.1097689 0.64663124 -0.35938567 49 18
4.1557465 0.90698618 -0.14654037 49 38
4.1242442 0.64815784 -0.30321673 48 22
4.1628666 1.0369291 -0.095792755 14 45
4.1428223 0.65106046 -0.24628596 46 26
4.0586143 0.88434172 -0.51654029 43 9
4.1784983 1.0400465 -0.036517676 41 53
4.1558032 0.6523456 -0.18866311 42 32
4.0728664 0.8874414 -0.43359509 44 13
4.167994 0.65350276 -0.13072455 42 40
4.0931416 0.89110279 -0.37721363 37 17
4.2039714 0.65911096 -0.072913326 38 48
4.1547623 0.77501553 -0.19688077 44 31
4.1668901 0.77726984 -0.1386846 46 39
4.1828775 0.90754485 -0.088160433 25 46
4.0763116 0.75969696 -0.4937802 52 10
4.2032228 0.91195101 -0.029031308 43 54
4.2080989 0.91300708 0.030555217 36 62
4.1308408 1.023598 -0.2130193 40 29
4.202549 0.91103727 0.090063639 42 69
4.1527553 1.0290253 -0.15407233 39 37
4.0529628 1.1302888 -0.39358637 31 16
4.0724645 1.134964 -0.3365055 23 20
4.095819 1.141476 -0.27927202 45 24
4.1140084 1.1450003 -0.22116603 14 28
4.1215997 1.1463391 -0.16221648 48 36
4.1896777 0.77243006 -0.08037252 40 47
4.1099634 0.88349569 -0.31995872 35 21
4.2100468 0.77617216 -0.021486379 49 55
4.1287255 0.88676763 -0.26267606 38 25
4.0966268 0.63066351 -0.41664594 45 14
4.136796 0.88849771 -0.20443745 38 30
4.1120014 0.63228154 -0.35938567 41 18
4.1588874 0.89247441 -0.14654037 41 38
4.1264815 0.63375765 -0.30321673 45 22
4.1664605 1.0223917 -0.095792755 34 45
4.1401358 0.63584214 -0.24599029 45 26
4.0568247 0.86913168 -0.51591796 29 9
4.1869597 1.0266445 -0.036560439 52 53
4.1580548 0.63783514 -0.18866311 44 32
4.0759392 0.87321901 -0.43359509 36 13
4.1653094 0.6381973 -0.13056836 42 40
4.0962276 0.87680966 -0.37721363 39 17
4.0349879 0.98790789 -0.55311972 39 8
4.1525288 0.75961244 -0.19664612 43 31
4.1646609 0.76182377 -0.13851969 45 39
4.1811304 0.89189726 -0.088056594 14 46
4.0740547 0.74457407 -0.49318385 49 10
4.2014899 0.89623225 -0.028997272 43 54
4.2112598 0.89831251 0.030555217 13 62
4.1343884 1.0091724 -0.2130193 33 29
4.2105927 0.89740217 0.090169221 37 69
4.1514673 1.0133389 -0.15389086 38 37
4.0568838 1.1161345 -0.39358637 20 16
4.0764012 1.1207416 -0.3365055 17 20
4.0949678 1.1258489 -0.27894151 36 24
4.1131659 1.1293104 -0.22090523 14 28
4.1303935 1.1332674 -0.16240756 39 36
4.192348 0.75780064 -0.08037252 25 47
4.1130219 0.86914384 -0.31995872 29 21
4.207809 0.76058531 -0.02146107 43 55
4.1317959 0.87235028 -0.26267606 29 25
4.0938835 0.61562455 -0.41614151 40 14
4.1398721 0.87405217 -0.20443745 17 30
4.1092567 0.61718881 -0.35895163 42 18
4.1570873 0.87692213 -0.14636675 44 38
4.1237359 0.61861426 -0.30285138 41 22
4.1700039 1.0078418 -0.095792755 13 45
4.1423297 0.62138653 -0.24599029 38 26
4.0646892 0.85598594 -0.51654029 20 9
4.1856575 1.0108498 -0.036517676 52 53
4.1553159 0.62258118 -0.18843719 41 32
4.0740967 0.85796326 -0.43307334 30 13
4.1675115 0.62365371 -0.13056836 42 40
4.0895166 0.86045897 -0.37630901 20 17
4.0432296 0.97497827 -0.55378532 39 8
4.1502385 0.74423438 -0.19641146 39 31
4.1623755 0.74640286 -0.13835479 41 39
4.1793256 0.87627304 -0.087952755 17 46
4.0766287 0.73034835 -0.49318385 43 10
4.1996994 0.88053668 -0.02896324 42 54
4.2094765 0.8825829 0.030519437 14 62
4.1330304 0.99356788 -0.21276718 14 29
4.2039132 0.88065279 0.089958049 40 69
4.1501212 0.99767423 -0.1537094 25 37
4.0559506 1.1006622 -0.39311668 20 16
4.0850983 1.1078106 -0.33690563 17 20
4.0988731 1.1115479 -0.27894151 20 24
4.1170826 1.1149457 -0.22090523 14 28
4.1295018 1.1175371 -0.16221648 43 36
4.1851211 0.74142402 -0.080182284 14 47
4.1160312 0.85478145 -0.31995872 28 21
4.2104383 0.7458927 -0.02146107 43 55
4.1348157 0.85792226 -0.26267606 17 25
4.091085 0.60061234 -0.41563708 35 14
4.1428976 0.85959601 -0.20443745 14 30
4.1064572 0.60212284 -0.35851762 25 18
4.1601229 0.86240584 -0.14636675 31 38
4.1209354 0.60349786 -0.30248606 43 22
4.1734967 0.99327964 -0.095792755 25 45
4.1345959 0.60548574 -0.24539898 20 26
4.0676522 0.84179223 -0.51654029 23 9
4.194025 0.9973892 -0.036560439 42 53
4.1574636 0.60807264 -0.18843719 36 32
4.0770664 0.84373671 -0.43307334 41 13
4.1597719 0.60766673 -0.130256 41 40
4.0973721 0.84718508 -0.37676132 23 17
4.0369649 0.9585703 -0.55245411 49 8
4.1528111 0.72974277 -0.19641146 14 31
4.169878 0.73273063 -0.13851969 34 39
4.1823587 0.86167914 -0.087952755 17 46
4.0742631 0.71525866 -0.49258754 29 10
4.2027473 0.86587167 -0.02896324 34 54
4.2125316 0.86788368 0.030519437 17 62
4.1364737 0.97913492 -0.21276718 17 29
4.1971693 0.8639611 0.089746885 33 69
4.1535788 0.98318154 -0.1537094 36 37
4.0394802 1.0818207 -0.44963434 49 12
4.0597682 1.0864975 -0.39311668 28 16
4.084126 1.0922559 -0.3365055 25 20
4.1027279 1.0972334 -0.27894151 31 24
4.1209493 1.1005676 -0.22090523 17 28
4.1382046 1.1044044 -0.16240756 40 36
4.1827583 0.725959 -0.08008717 17 47
4.1189899 0.84040856 -0.31995872 25 21
4.2080903 0.73033911 -0.021435764 41 55
4.1328959 0.84248906 -0.26236302 23 25
4.0931563 0.58632809 -0.41563708 31 14
4.1458731 0.84512937 -0.20443745 20 30
4.1134653 0.58848596 -0.35895163 25 18
4.1631079 0.84787905 -0.14636675 28 38
4.1230168 0.58910942 -0.30248606 28 22
4.172071 0.97756559 -0.095680185 26 45
4.1416249 0.5917511 -0.24569464 17 26
4.0657043 0.82660186 -0.51591796 29 9
4.1926126 0.98160398 -0.036517676 42 53
4.1546159 0.59285551 -0.18821123 17 32
4.079987 0.82949996 -0.43307334 30 13
4.2074809 0.98430866 0.023183968 48 61
4.1569195 0.59244204 -0.13009982 37 40
4.1003046 0.83287746 -0.37676132 28 17
4.0354609 0.94334555 -0.55178851 55 8
4.1553335 0.71524227 -0.19641146 20 31
4.17241 0.71817052 -0.13851969 32 39
4.1804409 0.84608489 -0.087848917 20 46
4.0816283 0.70187062 -0.49318385 29 10
4.2008429 0.85020608 -0.028929206 40 54
4.2106347 0.85218394 0.030483657 20 62
4.1447301 0.96582264 -0.2130193 25 29
4.2001595 0.84930491 0.089746885 32 69
4.1569853 0.96867681 -0.1537094 47 37
4.0384254 1.066444 -0.44909519 55 12
4.0635357 1.0723196 -0.39311668 35 16
4.0830941 1.0767214 -0.33610538 31 20
4.1017089 1.0816327 -0.278611 43 24
4.1247659 1.086176 -0.22090523 20 28
4.1420345 1.0899527 -0.16240756 44 36
4.1730213 1.0973321 -0.10382354 50 44
4.1901956 0.71218848 -0.080182284 23 47
4.1218982 0.82602549 -0.31995872 32 21
4.1309175 0.82707959 -0.26204991 30 25
4.0951781 0.57203674 -0.41563708 33 14
4.148798 0.83065242 -0.20443745 29 30
4.1154943 0.57412368 -0.35895163 27 18
4.1660419 0.8333419 -0.14636675 37 38
4.1250482 0.57471383 -0.30248606 32 22
4.1803293 0.9641192 -0.095792755 31 45
4.1387219 0.57660633 -0.24539898 25 26
4.0685644 0.81240481 -0.51591796 33 9
4.2008858 0.96808529 -0.036560439 65 53
4.1566596 0.57834959 -0.18821123 23 32
4.0828576 0.81525308 -0.43307334 36 13
4.2108912 0.96961576 0.023183968 49 61
4.1031871 0.81855959 -0.37676132 36 17
4.0532179 0.93258494 -0.55378532 56 8
4.1578045 0.70073313 -0.19641146 28 31
4.1699634 0.70277441 -0.13835479 30 39
4.1882725 0.83245999 -0.087952755 23 46
4.0791574 0.68679768 -0.49258754 28 10
4.2037849 0.83553714 -0.028929206 43 54
4.2135835 0.83748084 0.030483657 23 62
4.138341 0.9491176 -0.21251509 31 29
4.1981945 0.83366662 0.089641295 34 69
4.1603413 0.95416033 -0.1537094 51 37
4.0421233 1.0523409 -0.44909519 49 12
4.0672545 1.0581287 -0.39311668 47 16
4.0868282 1.0624623 -0.33610538 40 20
4.1054602 1.0673085 -0.278611 44 24
4.1285324 1.0717713 -0.22090523 30 28
4.1458139 1.0754877 -0.16240756 51 36
4.1671495 1.0802491 -0.10358097 49 44
4.1778607 0.69510567 -0.079896934 23 47
4.1149731 0.8097111 -0.31919327 43 21
4.13378 0.81265491 -0.26204991 37 25
4.0971503 0.55773842 -0.41563708 36 14
4.1467719 0.81520385 -0.20419407 33 30
4.1174736 0.55975443 -0.35895163 32 18
4.164022 0.81783348 -0.14619313 46 38
4.1270294 0.56031126 -0.30248606 31 22
4.1836691 0.94952124 -0.095792755 25 45
4.1407094 0.56215602 -0.24539898 25 26
4.0713758 0.79819798 -0.51591796 37 9
4.1993632 0.95231044 -0.036517676 65 53
4.1537032 0.56316996 -0.18798529 28 32
4.0905585 0.80195111 -0.43359509 44 13
4.2093735 0.95380676 0.023156915 48 61
4.106019 0.80423182 -0.37676132 42 17
4.0419483 0.91514993 -0.55178851 50 8
4.1552968 0.68540573 -0.1961768 34 31
4.1723914 0.68821424 -0.13835479 42 39
4.191153 0.81783509 -0.087952755 28 46
4.0766315 0.67175066 -0.49199116 31 10
4.206676 0.82085812 -0.028929206 43 54
4.2115736 0.82181191 0.030447882 28 62
4.1465001 0.93576497 -0.21276718 44 29
4.158772 0.93853283 -0.15352792 61 37
4.0457726 1.0382247 -0.44909519 54 12
4.0661011 1.0426879 -0.392647 46 16
4.0856843 1.0469522 -0.33570522 44 20
4.1091604 1.0529712 -0.278611 47 24
4.1225739 1.0548768 -0.2203836 37 28
4.1495428 1.0610096 -0.16240756 50 36
4.1708951 1.0656964 -0.10358097 40 44
4.1950655 0.68291831 -0.080182284 25 47
4.117774 0.79534221 -0.31919327 47 21
4.1365914 0.79822034 -0.26204991 42 25
4.099072 0.54343331 -0.41563708 44 14
4.1446886 0.79977965 -0.2039507 42 30
4.1194024 0.54537833 -0.35895163 39 18
4.1668515 0.80329341 -0.14619313 47 38
4.1289601 0.54590178 -0.30248606 38 22
4.1820798 0.93382299 -0.095680185 40 45
4.1426468 0.54769874 -0.24539898 31 26
4.0692644 0.78304565 -0.51529557 52 9
4.202662 0.93764603 -0.036517676 65 53
4.1556435 0.54866737 -0.18798529 30 32
4.0884495 0.78672969 -0.43307334 48 13
4.212677 0.93910742 0.023156915 38 61
4.1039109 0.78895605 -0.37630901 40 17
4.0402808 0.89995843 -0.5511229 52 8
4.1527324 0.67010427 -0.19594213 45 31
4.1698346 0.67285281 -0.1381899 43 39
4.1890717 0.80226183 -0.087848917 32 46
4.0789509 0.65751642 -0.49199116 48 10
4.2046051 0.80523056 -0.028895169 46 54
4.2144165 0.80710578 0.030447882 28 62
4.1399913 0.91912198 -0.21226302 46 29
4.1571445 0.92292792 -0.15334643 42 37
4.0445523 1.0228766 -0.44855607 38 12
4.0648899 1.0272679 -0.39217731 45 16
4.089314 1.0326842 -0.33570522 43 20
4.1128111 1.0386213 -0.278611 43 24
4.1310725 1.0417013 -0.22064441 41 28
4.1532216 1.0465184 -0.16240756 50 36
4.1745896 1.0511309 -0.10358097 41 44
4.1364675 1.1844405 -0.17061868 58 35
4.1776743 0.66513908 -0.07980182 31 47
4.1205254 0.7809636 -0.31919327 49 21
4.1393523 0.78377616 -0.26204991 43 25
4.0960102 0.52848947 -0.41513267 51 14
4.1474552 0.78530711 -0.2039507 46 30
4.1163402 0.53036356 -0.35851762 35 18
4.1647201 0.78781652 -0.1460195 49 38
4.1258941 0.53085381 -0.30212072 46 22
4.1755486 0.91707563 -0.09545505 42 45
4.1395817 0.53260237 -0.24510331 37 26
4.0719728 0.76883656 -0.51529557 50 9
4.2010255 0.92189926 -0.036474913 65 53
4.1525784 0.533526 -0.18775934 39 32
4.0911708 0.77245361 -0.43307334 49 13
4.2110462 0.92332661 0.023129864 35 61
4.1017461 0.77370477 -0.3758567 44 17
4.0385566 0.88478982 -0.55045724 50 8
4.155046 0.65560448 -0.19594213 49 31
4.1721578 0.65829325 -0.1381899 49 39
4.1869335 0.78671312 -0.08774507 40 46
4.0812216 0.64327425 -0.49199116 51 10
4.2073903 0.79054886 -0.028895169 47 54
4.2122941 0.79146838 0.030412102 41 62
4.1382952 0.90360045 -0.21201092 34 29
4.1603408 0.9084112 -0.15334643 65 37
4.0713739 1.2730844 -0.29502982 43 23
4.0480986 1.0087521 -0.44855607 54 12
4.0732813 1.0142759 -0.392647 42 16
4.0928936 1.0184035 -0.33570522 40 20
4.1164112 1.0242585 -0.278611 43 24
4.1346831 1.0272748 -0.22064441 43 28
4.152 1.0308102 -0.16221648 49 36
4.1636791 1.0329399 -0.1032171 38 44
4.1792402 1.0368024 -0.043224681 48 52
4.1357698 1.1686339 -0.17041889 48 35
4.1898508 0.65208358 -0.079992056 37 47
4.1232262 0.76657557 -0.31919327 40 21
4.1371565 0.76841295 -0.26173681 48 25
4.0978298 0.51418859 -0.41513267 51 14
4.1452608 0.76991498 -0.20370732 43 30
4.1132236 0.51537687 -0.35808358 50 18
4.1625309 0.77236438 -0.14584586 50 38
4.1227736 0.51583385 -0.30175543 48 22
4.1787243 0.90249461 -0.09545505 39 45
4.1364622 0.51753402 -0.24480766 47 26
4.0697536 0.75371653 -0.51467323 44 9
4.2042179 0.9072293 -0.036474913 43 53
4.0889525 0.75726444 -0.43255156 45 13
4.2142434 0.90862173 0.023129864 33 61
4.1044221 0.75938231 -0.3758567 40 17
4.0416207 0.87068731 -0.55045724 49 8
4.1523733 0.64033866 -0.19570749 41 31
4.1694903 0.64296716 -0.13802499 50 39
4.1847377 0.77118909 -0.087641232 20 46
4.0785351 0.62827158 -0.49139479 52 10
4.210124 0.77585751 -0.028895169 44 54
4.146307 0.89019722 -0.21226302 40 29
4.1586013 0.89283508 -0.15316495 39 37
4.0710287 1.25739 -0.29468194 96 23
4.0515952 0.99461555 -0.44855607 32 12
4.0719628 0.99886483 -0.39217731 32 16
4.0964236 1.0041106 -0.33570522 25 20
4.1151166 1.008695 -0.27828053 45 24
4.1382442 1.0128359 -0.22064441 14 28
4.1555729 1.0163107 -0.16221648 40 36
4.1672597 1.0183997 -0.1032171 14 44
4.1876907 1.0233953 -0.043275297 46 52
4.1398239 1.1541903 -0.17041889 37 35
4.1209722 0.75128591 -0.31881055 35 21
4.134903 0.75307465 -0.26142374 39 25
4.0946612 0.4992837 -0.4146283 50 14
4.1380949 0.7536546 -0.20322056 38 30
4.1100521 0.50041831 -0.35764951 41 18
4.1602845 0.75693703 -0.14567223 42 38
4.1245489 0.50143957 -0.30175543 50 22
4.181849 0.88790268 -0.09545505 17 45
4.1382437 0.50309199 -0.24480766 43 26
4.0723596 0.73950583 -0.51467323 36 9
4.2024679 0.89151138 -0.036432151 41 53
4.0915709 0.74298674 -0.43255156 40 13
4.2124977 0.89286959 0.023102811 14 61
4.1021481 0.74416375 -0.37540445 34 17
4.0446353 0.856574 -0.55045724 45 8
4.1545835 0.62584031 -0.19570749 41 31
4.1667676 0.62766778 -0.13786007 45 39
4.1874042 0.7565769 -0.087641232 14 46
4.0807033 0.61403102 -0.49139479 49 10
4.2029657 0.75938243 -0.028827103 43 54
4.1445031 0.87468791 -0.21201092 35 29
4.1616926 0.87831342 -0.15316495 38 37
4.0753932 1.2431718 -0.29468194 97 23
4.0550423 0.98046678 -0.44855607 29 12
4.0934739 1.2479187 -0.23650137 96 27
4.0705862 0.98347533 -0.39170769 17 16
4.0950599 0.98863506 -0.33530512 14 20
4.1137633 0.99315298 -0.27795002 36 24
4.1369004 0.99721384 -0.2203836 17 28
4.1542373 1.0006281 -0.16202542 31 36
4.1707888 1.003847 -0.1032171 14 44
4.1863766 1.0076008 -0.043224681 39 52
4.1390104 1.1384058 -0.17021911 47 35
4.1235695 0.73689646 -0.31881055 31 21
4.137507 0.73863649 -0.26142374 29 25
4.0963793 0.48498762 -0.4146283 45 14
4.1456175 0.74008125 -0.20346394 17 30
4.1117744 0.48606852 -0.35764951 29 18
4.1629019 0.7424103 -0.14567223 46 38
4.1213212 0.48645911 -0.30139011 52 22
4.1800303 0.87227947 -0.095342495 17 45
4.1350174 0.48806316 -0.24451199 42 26
4.0749159 0.72528619 -0.51467323 20 9
4.195765 0.87479687 -0.036346633 38 53
4.0892429 0.72783047 -0.43202978 30 13
4.2106938 0.8771407 0.023075758 14 61
4.1047206 0.72983998 -0.37540445 20 17
4.0524521 0.84345967 -0.5511229 41 8
4.1518002 0.61061072 -0.19547282 29 31
4.1689329 0.61311924 -0.13786007 43 39
4.1801748 0.74021602 -0.087433554 14 46
4.0779099 0.59906459 -0.49079844 45 10
4.2105141 0.74557662 -0.028861135 42 54
4.1426415 0.85920209 -0.21175882 14 29
4.1598401 0.86276692 -0.15298347 31 37
4.0797076 1.2289385 -0.29468194 97 23
4.0584402 0.96630609 -0.44855607 28 12
4.097805 1.2336222 -0.23650137 97 27
4.0739946 0.96926028 -0.39170769 20 16
4.0984855 0.97433466 -0.33530512 17 20
4.1172047 0.97878724 -0.27795002 20 24
4.1403561 0.98276728 -0.2203836 17 28
4.1577048 0.98612106 -0.16202542 40 36
4.1742678 0.98928213 -0.1032171 14 44
4.1947331 0.99413502 -0.043275297 38 52
4.1381383 1.1226412 -0.17001933 68 35
4.1834402 1.1349494 -0.11181124 77 43
4.1212053 0.72164011 -0.3184278 24 21
4.1400599 0.7241894 -0.26142374 21 25
4.0931044 0.47012252 -0.41412386 39 14
4.1481757 0.72560579 -0.20346394 17 30
4.1084962 0.47114971 -0.35721546 25 18
4.1654677 0.72787458 -0.14567223 37 38
4.1180391 0.47150725 -0.30102476 47 22
4.1830492 0.85768312 -0.095342495 17 45
4.0823112 0.71190798 -0.51529557 23 9
4.1987934 0.86014563 -0.036346633 23 53
4.0917592 0.71355188 -0.43202978 36 13
4.2137303 0.86243731 0.023075758 14 61
4.1072435 0.71550745 -0.37540445 34 17
4.0553722 0.82930875 -0.5511229 42 8
4.1539063 0.5961144 -0.19547282 20 31
4.1661005 0.59785652 -0.13769518 40 39
4.1827331 0.72561997 -0.087433554 17 46
4.0799761 0.58482641 -0.49079844 41 10
4.2032375 0.72916913 -0.028793069 31 54
4.1456151 0.8447364 -0.21175882 17 29
4.1579304 0.8472442 -0.15280202 38 37
4.0648522 1.2089901 -0.29329026 37 23
4.0617886 0.9521336 -0.44855607 34 12
4.0925174 1.2164599 -0.23594488 48 27
4.077353 0.95503354 -0.39170769 28 16
4.0970082 0.95888579 -0.334905 20 20
4.1205959 0.96440953 -0.27795002 30 24
4.1437616 0.96830887 -0.2203836 17 28
4.1611218 0.9716019 -0.16202542 33 36
4.1776958 0.9747051 -0.1032171 20 44
4.0379167 1.1963581 -0.34988201 96 19
4.1933093 0.97834998 -0.043224681 38 52
4.2051692 0.99428445 0.01570531 49 60
4.1420317 1.1081896 -0.17001933 37 35
4.2211723 1.1293952 -0.11272133 57 43
4.1236997 0.70725 -0.3184278 25 21
4.1425629 0.70973349 -0.26142374 20 25
4.089776 0.45528615 -0.41361943 30 14
4.1506834 0.71112156 -0.20346394 20 30
4.1101155 0.4568055 -0.35721546 25 18
4.1630583 0.71248901 -0.14549862 29 38
4.1196604 0.45712975 -0.30102476 42 22
4.1811171 0.84209001 -0.095229931 17 45
4.0798802 0.69682044 -0.51467323 28 9
4.1968679 0.8444981 -0.03630387 40 53
4.0991268 0.7001 -0.43255156 37 13
4.2118125 0.84673846 0.023048704 20 61
4.1097159 0.70116609 -0.37540445 25 17
4.0533834 0.81417257 -0.55045724 51 8
4.1510153 0.58092195 -0.19523816 28 31
4.1852403 0.71101511 -0.087433554 20 46
4.0819926 0.57058102 -0.49079844 31 10
4.1485386 0.83026034 -0.21175882 25 29
4.1657619 0.83370501 -0.15298347 49 37
4.0786176 1.1976104 -0.29398608 50 23
4.0650873 0.93794954 -0.44855607 43 12
4.1015277 1.2035754 -0.23622313 38 27
4.0806623 0.94079512 -0.39170769 33 16
4.1003304 0.94457871 -0.334905 30 20
4.1190758 0.94889945 -0.27761951 43 24
4.1422501 0.95271856 -0.2201228 23 28
4.1596193 0.95595145 -0.16183436 41 36
4.1810727 0.96011627 -0.1032171 23 44
4.0468488 1.1836576 -0.35029951 97 19
4.2015715 0.96482617 -0.043275297 46 52
4.2086143 0.9795996 0.01570531 39 60
4.1410446 1.0924484 -0.16981953 41 35
4.1719313 1.1006089 -0.11129118 34 43
4.1261435 0.69285125 -0.3184278 30 21
4.1400938 0.69444531 -0.26111066 29 25
4.0913405 0.44100741 -0.41361943 31 14
4.1482143 0.69580424 -0.20322056 28 30
4.1116848 0.44245577 -0.35721546 25 18
4.1655197 0.69795287 -0.14549862 39 38
4.1013966 0.44063398 -0.2995635 32 22
4.1840315 0.82749009 -0.095229931 33 45
4.0773945 0.68175852 -0.51405096 31 9
4.1997905 0.82984316 -0.03630387 64 53
4.0917358 0.6841507 -0.431508 36 13
4.2147427 0.83203131 0.023048704 26 61
4.1121387 0.68681622 -0.37540445 35 17
4.0513391 0.79906046 -0.54979169 54 8
4.1431203 0.56508511 -0.19476885 25 31
4.1876969 0.69640154 -0.087433554 20 46
4.0839596 0.55632871 -0.49079844 32 10
4.1514115 0.8157742 -0.21175882 31 29
4.163744 0.81819594 -0.15280202 51 37
4.0152168 0.91168553 -0.59903169 49 7
4.0779829 1.1819744 -0.29363817 43 23
4.0683365 0.92375404 -0.44855607 49 12
4.1009102 1.1878592 -0.23594488 48 27
4.083921 0.9265452 -0.39170769 44 16
4.123076 1.1935147 -0.17764801 70 34
4.1036029 0.93026018 -0.334905 39 20
4.1223631 0.93451548 -0.27761951 44 24
4.1455503 0.93825364 -0.2201228 29 28
4.162931 0.9414258 -0.16183436 48 36
4.1795225 0.94441348 -0.10309581 28 44
4.0461698 1.1681392 -0.34988201 55 19
4.2000365 0.94905162 -0.043224681 48 52
4.2071352 0.96378577 0.015686983 42 60
4.1448331 1.0779867 -0.16981953 46 35
4.1999326 1.0923392 -0.11194125 65 43
4.1236167 0.67763752 -0.31804508 40 21
4.1424923 0.67998952 -0.26111066 37 25
4.0928545 0.42672324 -0.41361943 34 14
4.14569 0.68051314 -0.2029772 31 30
4.1132045 0.42810059 -0.35721546 25 18
4.1679306 0.68340826 -0.14549862 47 38
4.1177907 0.4278473 -0.30065945 29 22
4.1868944 0.81288004 -0.095229931 25 45
4.0797496 0.66752154 -0.51405096 35 9
4.202662 0.8151781 -0.03630387 69 53
4.094099 0.66986364 -0.431508 44 13
4.2176213 0.81731409 0.023048704 30 61
4.1095963 0.67165673 -0.37495214 42 17
4.0541039 0.78491378 -0.54979169 50 8
4.1500177 0.55127394 -0.19500349 30 31
4.1999702 0.68338132 -0.087641232 25 46
4.0809555 0.54142004 -0.49020213 32 10
4.1493301 0.8003329 -0.21150671 42 29
4.1616683 0.80271107 -0.15262054 44 37
4.0820837 1.1677324 -0.29363817 45 23
4.0666847 0.90846282 -0.44801691 50 12
4.1002321 1.1721621 -0.23566666 48 27
4.0871301 0.91228396 -0.39170769 45 16
4.1272168 1.1791153 -0.17764801 96 34
4.1068254 0.91593027 -0.334905 45 20
4.1255999 0.92012006 -0.27761951 48 24
4.1390529 0.92160553 -0.21960118 36 28
4.1613145 0.92580312 -0.1616433 50 36
4.1827941 0.92981845 -0.10309581 38 44
4.0598049 1.1567451 -0.35071704 35 19
4.2033243 0.93438488 -0.043224681 51 52
4.2104735 0.9490943 0.015686983 43 60
4.1485701 1.063512 -0.16981953 46 35
4.1988783 1.0764289 -0.11181124 47 43
4.125957 0.66323924 -0.31804508 44 21
4.1399131 0.66473609 -0.26079759 42 25
4.0943193 0.41243395 -0.41361943 39 14
4.1480398 0.66603786 -0.2029772 39 30
4.1097178 0.41324642 -0.35678145 25 18
4.1653566 0.66806579 -0.14532499 49 38
4.099411 0.41149682 -0.29919815 36 22
4.1847954 0.79732507 -0.09511736 40 45
4.0820546 0.6532765 -0.51405096 52 9
4.2054815 0.80050308 -0.03630387 68 53
4.0964122 0.65556848 -0.431508 49 13
4.2155371 0.80165344 0.023021653 34 61
4.1119156 0.65730751 -0.37495214 40 17
4.0519505 0.76983321 -0.54912609 49 8
4.1420102 0.53550988 -0.19453418 36 31
4.1875196 0.66636544 -0.087329708 28 46
4.0828204 0.52717161 -0.49020213 35 10
4.1520987 0.78584409 -0.21150671 43 29
4.1644449 0.78817916 -0.15262054 42 37
4.1861687 1.0498351 -0.051542416 55 51
4.0813365 1.152118 -0.29329026 44 23
4.0698314 0.89426196 -0.44801691 51 12
4.0994954 1.1564838 -0.23538843 34 27
4.0854278 0.89694357 -0.391238 43 16
4.1265001 1.1633431 -0.17743953 97 34
4.1051292 0.90052062 -0.33450487 43 20
4.1239133 0.90464371 -0.277289 44 24
4.1373672 0.90608323 -0.21934037 41 28
4.1596398 0.91020304 -0.16145222 50 36
4.0345654 1.1350821 -0.40668395 97 15
4.1811309 0.9141438 -0.10297451 39 44
4.0542264 1.1398635 -0.34988201 37 19
4.2016759 0.91863841 -0.043174066 52 52
4.2137609 0.93439114 0.015686983 42 60
4.1936178 0.92992181 0.075090639 49 68
4.1522574 1.0490242 -0.16981953 46 35
4.1735368 1.0544088 -0.11103116 29 43
4.123322 0.64806092 -0.31766239 43 21
4.1372781 0.64950895 -0.26048449 50 25
4.0957341 0.3981396 -0.41361943 54 14
4.1454053 0.65078169 -0.20273381 46 30
4.1111355 0.3988983 -0.35678145 30 18
4.1627259 0.65274972 -0.14515136 52 38
4.1826396 0.78179479 -0.095004797 30 45
4.0794082 0.63825858 -0.51342857 49 9
4.20825 0.78581834 -0.03630387 66 53
4.0937624 0.64049864 -0.43098626 49 13
4.2183099 0.7869336 0.023021653 43 61
4.1092649 0.64218318 -0.37449983 45 17
4.0546126 0.75568455 -0.54912609 49 8
4.204639 0.65404361 -0.087641232 39 46
4.0846357 0.51291662 -0.49020213 49 10
4.1548166 0.77134573 -0.21150671 37 29
4.1622581 0.7727263 -0.15243906 42 37
4.1898079 1.0352163 -0.051542416 37 51
4.0901365 1.1392058 -0.29363817 35 23
4.072928 0.88005012 -0.44801691 44 12
4.1083155 1.1435087 -0.23566666 34 27
4.0933995 0.8837285 -0.39170769 42 16
4.1305366 1.1489316 -0.17743953 44 34
4.1082478 0.88618559 -0.33450487 41 20
4.12217 0.88919055 -0.27695855 44 24
4.1453857 0.89268738 -0.21960118 43 28
4.1627917 0.89567769 -0.16145222 50 36
4.0480909 1.1236601 -0.40765807 37 15
4.1794095 0.89849216 -0.10285322 14 44
4.0629807 1.1270393 -0.35029951 34 19
4.2048569 0.90396619 -0.043174066 44 52
4.2169971 0.91967672 0.015686983 37 60
4.2359123 0.9238044 0.075795718 39 68
4.1558938 1.0345237 -0.16981953 45 35
4.162643 1.0362065 -0.11064112 17 43
4.1255593 0.63366383 -0.31766239 43 21
4.1395202 0.63506329 -0.26048449 45 25
4.0921459 0.38338089 -0.41311499 56 14
4.1476517 0.6363076 -0.20273381 43 30
4.1273823 0.38592303 -0.35808358 34 18
4.1600399 0.63746011 -0.14497773 53 38
4.1853428 0.7671898 -0.095004797 38 45
4.0816116 0.62401485 -0.51342857 47 9
4.2060494 0.77022403 -0.036261108 45 53
4.0959735 0.62620485 -0.43098626 48 13
4.2161121 0.77130497 0.0229946 40 61
4.1114817 0.62783527 -0.37449983 41 17
4.0523505 0.74063641 -0.54846048 48 8
4.0864015 0.4986555 -0.49020213 42 10
4.1476579 0.75505066 -0.21100254 40 29
4.1600137 0.75729829 -0.15225758 46 37
4.1933961 1.0205849 -0.051542416 43 51
4.0892797 1.1235971 -0.29329026 24 23
4.0711131 0.86479414 -0.44747782 33 12
4.1074691 1.1278361 -0.23538843 24 27
4.0915904 0.86840022 -0.391238 35 16
4.1297045 1.1331815 -0.17723101 37 34
4.1064401 0.87080514 -0.33410475 28 20
4.1252484 0.87479609 -0.27695855 43 24
4.1435919 0.87717712 -0.21934037 36 28
4.161005 0.88010681 -0.16126114 47 36
4.0423913 1.1068882 -0.40668395 35 15
4.1825204 0.88389778 -0.10285322 17 44
4.0668898 1.1128501 -0.35029951 29 19
4.1982036 0.8872143 -0.043072842 43 52
4.2152929 0.90390217 0.015668659 14 60
4.2097836 0.90272003 0.075266913 42 68
4.1546273 1.0188189 -0.16961974 41 35
4.1662345 1.0216699 -0.11064112 29 43
4.1228151 0.61852139 -0.31727964 37 21
4.1367764 0.61987221 -0.26017141 42 25
4.0934596 0.36909428 -0.41311499 57 14
4.149848 0.62182575 -0.20273381 41 30
4.1088581 0.3697457 -0.35634741 43 18
4.1622396 0.622935 -0.14497773 49 38
4.1830754 0.75169218 -0.094892226 29 45
4.0788584 0.60903287 -0.51280624 42 9
4.2037911 0.75465471 -0.036218353 39 53
4.0981345 0.61190343 -0.43098626 42 13
4.1087227 0.61274713 -0.37404752 37 17
4.0597892 0.72735983 -0.54912609 45 8
4.0831866 0.48380738 -0.48960575 52 10
4.1502681 0.74056804 -0.21100254 35 29
4.1577125 0.74189544 -0.15207611 41 37
4.1920719 1.004774 -0.051482208 39 51
4.0931773 1.109316 -0.29329026 18 23
4.0692415 0.84956157 -0.44693869 27 12
4.1065621 1.1121833 -0.23511018 16 27
4.0848503 0.85207844 -0.39029863 28 16
4.1288137 1.1174511 -0.1770225 35 34
4.1045766 0.85544825 -0.33370465 17 20
4.1500945 1.123225 -0.11834229 96 42
4.1233926 0.85937226 -0.27662805 38 24
4.1466289 0.86270797 -0.21934037 17 28
4.1591601 0.86455941 -0.16107008 36 36
4.0510335 1.0940714 -0.40717101 22 15
4.1855803 0.86929274 -0.10285322 17 44
4.0755596 1.0999486 -0.35071704 22 19
4.1963797 0.87153703 -0.043022227 37 52
4.2135301 0.88815063 0.015650332 14 60
4.2080169 0.88698786 0.075178772 28 68
4.1533031 1.0031356 -0.16941996 39 35
4.169776 1.0071207 -0.11064112 20 43
4.1200161 0.60340577 -0.31689692 42 21
4.1339774 0.60470802 -0.25985834 34 25
4.089766 0.35437828 -0.41261059 57 14
4.1470518 0.60661536 -0.20249043 17 30
4.1250129 0.3566747 -0.35764951 41 18
4.1594439 0.60768181 -0.14480412 47 38
4.1807508 0.73621958 -0.09477967 14 45
4.0809588 0.59479129 -0.51280624 25 9
4.1916265 0.73737919 -0.036090069 38 53
4.0953245 0.59687924 -0.43046448 40 13
4.1059089 0.59768593 -0.37359527 25 17
4.0574222 0.71232778 -0.54846048 42 8
4.0848508 0.46955138 -0.48960575 51 10
4.1479087 0.72521698 -0.21075045 17 29
4.1602769 0.72737777 -0.15207611 36 37
4.1955538 0.99013472 -0.051482208 36 51
4.0970244 1.0950214 -0.29329026 23 23
4.0721827 0.83535212 -0.44693869 23 12
4.2154846 0.99406946 0.0082458025 31 59
4.1152425 1.0991333 -0.23538843 24 27
4.0878 0.83781445 -0.39029863 17 16
4.1326885 1.1030319 -0.1770225 35 34
4.1124191 0.84211576 -0.33410475 23 20
4.1395054 1.1048559 -0.11792608 97 42
4.1312551 0.84597528 -0.27695855 22 24
4.1496148 0.84822822 -0.21934037 20 28
4.1621528 0.85003591 -0.16107008 41 36
4.0548282 1.079924 -0.40717101 39 15
4.183692 0.85367715 -0.10273194 20 44
4.0745597 1.0844309 -0.35029951 29 19
4.1993961 0.85688365 -0.043022227 30 52
4.2166042 0.87343729 0.015650332 17 60
4.2061925 0.87127912 0.075090639 20 68
4.1567793 0.98863173 -0.16941996 68 35
4.1732659 0.99255931 -0.11064112 24 43
4.1220975 0.58902055 -0.31689692 31 21
4.1360626 0.5902741 -0.25985834 25 25
4.0860209 0.33969259 -0.41210622 57 14
4.1491437 0.59213573 -0.20249043 20 30
4.1565924 0.59245569 -0.14463049 43 38
4.178369 0.72077245 -0.094667099 17 45
4.0879221 0.58123893 -0.51342857 28 9
4.2040296 0.7244401 -0.03617559 20 53
4.0924592 0.58188218 -0.42994267 48 13
4.1079702 0.58335 -0.37359527 28 17
4.0647683 0.6989997 -0.54912609 38 8
4.0815306 0.45474327 -0.48900938 36 10
4.1553373 0.71157593 -0.21100254 17 29
4.1627908 0.71285129 -0.15207611 41 37
4.041142 0.81429076 -0.59975779 25 7
4.1989841 0.97548354 -0.051482208 33 51
4.0959992 1.0794394 -0.29294235 29 23
4.0799456 0.82211494 -0.44747782 32 12
4.2189288 0.9793486 0.0082458025 36 59
4.1142268 1.0834872 -0.23511018 34 27
4.0955796 0.82452345 -0.39076832 25 16
4.1365137 1.0885996 -0.1770225 40 34
4.1153336 0.82775557 -0.33410475 23 20
4.1578345 1.0942247 -0.11834229 44 42
4.1292911 0.8305648 -0.27662805 29 24
4.147655 0.83275461 -0.21907955 20 28
4.1650944 0.83550209 -0.16107008 34 36
4.0585732 1.0657634 -0.40717101 37 15
4.1866465 0.83906806 -0.10273194 22 44
4.07832 1.0702015 -0.35029951 37 19
4.1974597 0.84123665 -0.042971611 34 52
4.2147284 0.85771555 0.015632005 23 60
4.2092085 0.85659146 0.075090639 28 68
4.1602049 0.97411585 -0.16941996 35 35
4.1718383 0.97684443 -0.11051111 24 43
4.1241283 0.57462817 -0.31689692 23 21
4.1380982 0.5758329 -0.25985834 23 25
4.0772634 0.32464707 -0.41109735 55 14
4.1511855 0.57764888 -0.20249043 23 30
4.1586351 0.57794285 -0.14463049 39 38
4.1808596 0.70618284 -0.094667099 26 45
4.0850124 0.56628662 -0.51280624 30 9
4.1917419 0.70726717 -0.036047306 39 53
4.0895395 0.56691241 -0.42942089 36 13
4.1099815 0.56900692 -0.37359527 29 17
4.0622969 0.68398452 -0.54846048 49 8
4.0830932 0.44049332 -0.48900938 33 10
4.1577959 0.69706672 -0.21100254 25 29
4.1652536 0.6983161 -0.15207611 51 37
4.0294008 0.79729682 -0.59757948 31 7
4.2023635 0.96082044 -0.051482208 44 51
4.0997424 1.0651352 -0.29294235 39 23
4.0827904 0.8078683 -0.44747782 41 12
4.2174478 0.96350044 0.0082362033 36 59
4.1179838 1.0691193 -0.23511018 39 27
4.098433 0.81022215 -0.39076832 33 16
4.1451235 1.0754114 -0.17723101 45 34
4.1181984 0.81338537 -0.33410475 30 20
4.1471176 1.0759301 -0.11792608 45 42
4.1272712 0.81517851 -0.27629754 42 24
4.1505365 0.81827152 -0.21907955 25 28
4.1679854 0.82095814 -0.16107008 42 36
4.0622687 1.0515897 -0.40717101 40 15
4.1846461 0.82348323 -0.10261065 23 44
4.0820312 1.0559589 -0.35029951 44 19
4.2052765 0.8275457 -0.043022227 42 52
4.2176962 0.84299821 0.015632005 29 60
4.1827598 0.83601087 0.074561834 36 68
4.1635804 0.95958811 -0.16941996 41 35
4.1800938 0.96340054 -0.11064112 32 43
4.1945977 1.0968806 -0.059287556 89 50
4.1261091 0.56022877 -0.31689692 29 21
4.1400828 0.56138474 -0.25985834 30 25
4.0833321 0.31078574 -0.41160178 54 14
4.1482272 0.56248587 -0.20224704 28 30
4.188231 0.69239932 -0.09477967 23 45
4.0869641 0.55202377 -0.51280624 33 9
4.0914936 0.55263376 -0.42942089 43 13
4.1119428 0.55465698 -0.37359527 32 17
4.0597701 0.66899526 -0.54779482 40 8
4.0846057 0.426238 -0.48900938 30 10
4.1552753 0.68174118 -0.21075045 29 29
4.167666 0.68377239 -0.15207611 49 37
4.0321598 0.78322667 -0.59757948 38 7
4.2008142 0.94504625 -0.051421992 47 51
4.0986042 1.0495774 -0.29259443 43 23
4.0855861 0.79361171 -0.44747782 47 12
4.2207851 0.94877291 0.0082362033 36 59
4.1168551 1.0534978 -0.23483193 47 27
4.1012359 0.79591095 -0.39076832 42 16
4.1440129 1.0596949 -0.1770225 45 34
4.1161199 0.79805607 -0.33370465 37 20
4.1508484 1.0614473 -0.11792608 44 42
4.1300912 0.80076671 -0.27629754 47 24
4.1484652 0.80282915 -0.21881874 30 28
4.161015 0.804506 -0.16068795 46 36
4.0610933 1.0361701 -0.40668395 45 15
4.1874948 0.80887103 -0.10261065 29 44
4.0808659 1.0404696 -0.34988201 46 19
4.2032309 0.81191266 -0.042971611 54 52
4.2157073 0.82730705 0.01561368 34 60
4.1620326 0.94394183 -0.16922018 50 35
4.178556 0.94769591 -0.11051111 32 43
4.1887197 1.0797303 -0.059149679 97 50
4.1277752 1.193766 -0.1852936 98 33
4.1280394 0.5458225 -0.31689692 37 21
4.1370697 0.54627842 -0.25954527 38 25
4.0744681 0.29581904 -0.41059291 43 14
4.1501651 0.54800242 -0.20224704 31 30
4.1906219 0.67777544 -0.09477967 28 45
4.0888662 0.53775424 -0.51280624 37 9
4.0933981 0.53834844 -0.42942089 42 13
4.1138535 0.54030019 -0.37359527 42 17
4.0669723 0.65560794 -0.54846048 50 8
4.0860686 0.41197747 -0.48900938 33 10
4.152699 0.66644168 -0.21049835 37 29
4.1650934 0.6684292 -0.15189464 47 37
4.0300107 0.76822025 -0.59685344 51 7
4.2040873 0.93037695 -0.051421992 50 51
4.1070786 1.0364878 -0.29294235 46 23
4.0883312 0.77934551 -0.44747782 49 12
4.2143078 0.93187112 0.0082170041 36 59
4.1253476 1.0403446 -0.23511018 36 27
4.0990992 0.78065825 -0.39029863 47 16
4.2284322 0.93499982 0.068212457 50 67
4.1476865 1.0452231 -0.1770225 45 34
4.1139846 0.78275108 -0.33330449 46 20
4.1642194 1.0494004 -0.11820354 40 42
4.1328611 0.78634512 -0.27629754 49 24
4.146338 0.78741127 -0.21855795 34 28
4.1637979 0.78997648 -0.16068795 50 36
4.0598607 1.0207715 -0.40619695 45 15
4.1853814 0.7933175 -0.10248936 29 44
4.0796404 1.025001 -0.34946448 46 19
4.206039 0.79723567 -0.042971611 50 52
4.2136598 0.8116402 0.015595355 37 60
4.1604261 0.92831796 -0.16902038 47 35
4.181839 0.93310428 -0.11051111 42 43
4.1924634 1.0651023 -0.059149679 97 50
4.122313 1.1765999 -0.18485916 48 33
4.1249743 0.53077525 -0.31651416 51 21
4.1340017 0.53119987 -0.25923216 51 25
4.1470995 0.53287786 -0.20200369 30 30
4.188025 0.66236305 -0.094667099 32 45
4.0857964 0.52285028 -0.5121839 46 9
4.0952516 0.52405649 -0.42942089 49 13
4.110775 0.52530766 -0.37314296 40 17
4.0643415 0.64063668 -0.54779482 48 8
4.08254 0.39723432 -0.48841304 37 10
4.1550002 0.65194201 -0.21049835 44 29
4.1674013 0.65388626 -0.15189464 66 37
4.0326676 0.75414819 -0.59685344 49 7
4.2024245 0.91463119 -0.051361777 52 51
4.1106715 1.022145 -0.29294235 45 23
4.0861411 0.76415551 -0.44693869 52 12
4.2175345 0.91715479 0.0082170041 34 59
4.1289535 1.025938 -0.23511018 35 27
4.0969067 0.76543021 -0.38982898 46 16
4.2219005 0.91810584 0.068053633 63 67
4.1464624 1.0295317 -0.17681399 43 34
4.1166925 0.76838583 -0.33330449 42 20
4.1581573 1.0324433 -0.11792608 29 42
4.135581 0.77191395 -0.27629754 44 24
4.1490612 0.77293313 -0.21855795 41 28
4.1665301 0.7754373 -0.16068795 51 36
4.0682282 1.0077933 -0.40668395 42 15
4.1832108 0.77778858 -0.10236806 40 44
4.0880299 1.0119547 -0.34988201 37 19
4.208796 0.78254896 -0.042971611 51 52
4.2164674 0.79692674 0.015595355 43 60
4.163641 0.91378969 -0.16902038 53 35
4.1753063 0.9163546 -0.11025108 38 43
4.1913066 1.0492443 -0.059080739 43 50
4.1312017 1.1635613 -0.18507637 38 33
4.1218553 0.51575619 -0.31613147 54 21
4.1308784 0.51614952 -0.25891909 54 25
4.1952519 0.64850307 -0.09477967 42 45
4.0875964 0.50858498 -0.5121839 54 9
4.0970564 0.50975817 -0.42942089 48 13
4.1076417 0.51034313 -0.37269065 49 17
4.0665526 0.62644553 -0.54779482 50 8
4.0839019 0.38298118 -0.48841304 41 10
4.1523151 0.63667834 -0.21024626 43 29
4.1647191 0.63857865 -0.15171316 65 37
4.0304093 0.73917395 -0.59612727 42 7
4.2055917 0.89995646 -0.051361777 41 51
4.1093702 1.0066 -0.29259443 35 23
4.0838943 0.74899018 -0.44639954 46 12
4.2207108 0.9024272 0.0082170041 25 59
4.1276617 1.0103291 -0.23483193 35 27
4.0995536 0.75112462 -0.38982898 43 16
4.2250795 0.90336299 0.068053633 40 67
4.1451793 1.0138618 -0.17660549 40 34
4.1144466 0.75311309 -0.33290437 41 20
4.161736 1.0179223 -0.11792608 35 42
4.1333432 0.75657439 -0.27596703 43 24
4.1468215 0.75754744 -0.21829714 44 28
4.1642962 0.75999105 -0.16049688 51 36
4.0668879 0.99240375 -0.40619695 35 15
4.1859007 0.76318169 -0.10236806 14 44
4.0866971 0.99649507 -0.34946448 33 19
4.2065835 0.76695526 -0.042920996 45 52
4.2143073 0.78129166 0.015577029 42 60
4.1668053 0.89925033 -0.16902038 45 35
4.1784797 0.90177447 -0.11025108 31 43
4.1852374 1.0322073 -0.058942866 42 50
4.2099004 1.0383061 0.00075049151 95 58
4.1256146 1.1464503 -0.18464193 36 33
4.1228848 1.1456892 -0.12519322 96 41
4.1186814 0.50076532 -0.31574875 51 21
4.1326551 0.50172687 -0.25891909 59 25
4.0844221 0.49372017 -0.51156157 54 9
4.093874 0.49485892 -0.42889917 50 13
4.1093979 0.49600166 -0.37269065 48 17
4.0638146 0.61151004 -0.54712927 45 8
4.0852141 0.36872336 -0.48841304 57 10
4.1545124 0.62218016 -0.21024626 40 29
4.1570401 0.62255841 -0.15135022 43 37
4.0378342 0.72597671 -0.59685344 28 7
4.2038155 0.88423973 -0.051301561 41 51
4.1080112 0.99107671 -0.29224652 24 23
4.086484 0.73473018 -0.44639954 38 12
4.2189426 0.88665855 0.0082074059 14 59
4.1263103 0.99474162 -0.23455369 22 27
4.0972509 0.73592925 -0.3893593 38 16
4.2233148 0.88757914 0.067974225 30 67
4.1438365 0.99821311 -0.17639698 31 34
4.1170502 0.73874646 -0.33290437 30 20
4.1604052 1.0022154 -0.11778734 19 42
4.1359587 0.74214184 -0.27596703 40 24
4.1445255 0.74218696 -0.21803632 38 28
4.1620054 0.74456972 -0.1603058 50 36
4.0654898 0.97703552 -0.40570989 24 15
4.188539 0.74856555 -0.10236806 13 44
4.0853066 0.98105729 -0.34904695 38 19
4.1993918 0.75050658 -0.042819768 39 52
4.1601453 0.88262248 -0.16862081 42 35
4.1816025 0.88718331 -0.11025108 29 43
4.1839571 1.0164084 -0.058873925 36 50
4.203783 1.0212379 0.00074874621 97 58
4.1247749 1.1307174 -0.1844247 30 33
4.1461344 1.1365927 -0.12578307 96 41
4.1204042 0.48638541 -0.31574875 42 21
4.1294255 0.48671606 -0.25860602 52 25
4.0861211 0.47945988 -0.51156157 52 9
4.0955768 0.48056564 -0.42889917 49 13
4.1061587 0.48107666 -0.37223834 40 17
4.0659246 0.59732091 -0.54712927 45 8
4.0815301 0.35403529 -0.48781666 57 10
4.1566586 0.60767442 -0.21024626 36 29
4.1591878 0.60804379 -0.15135022 42 37
4.0403433 0.71187764 -0.59685344 23 7
4.2019806 0.86854655 -0.051241353 34 51
4.1114454 0.97673106 -0.29224652 19 23
4.0890236 0.72046119 -0.44639954 29 12
4.2171154 0.87091315 0.0081978058 14 59
4.134614 0.98148823 -0.23483193 17 27
4.0997944 0.72162265 -0.3893593 28 16
4.2214913 0.87181866 0.067894824 20 67
4.1521564 0.98489845 -0.17660549 29 34
4.1146955 0.72350705 -0.33250424 14 20
4.1638784 0.98768675 -0.11778734 16 42
4.1336112 0.72683555 -0.27563655 42 24
4.1470914 0.72771531 -0.21803632 17 28
4.1645794 0.73003709 -0.1603058 49 36
4.064033 0.96168935 -0.40522283 26 15
4.1812797 0.73221463 -0.1021255 14 44
4.088706 0.96679091 -0.34904695 22 19
4.1970615 0.73498034 -0.042769153 42 52
4.0385337 1.0941194 -0.47262397 96 11
4.1632009 0.86809552 -0.16862081 38 35
4.1797814 0.87155944 -0.11012107 23 43
4.1874795 1.0017976 -0.058873925 36 50
4.2121844 1.0077242 0.00074961892 98 58
4.1238751 1.1150043 -0.18420747 99 33
4.1307826 1.1168784 -0.12519322 56 41
4.1171241 0.47143432 -0.315366 42 21
4.1261411 0.47173372 -0.25829291 44 25
4.0779104 0.46407562 -0.51031691 38 9
4.0922885 0.46570617 -0.42837736 48 13
4.1078129 0.46674055 -0.37223834 42 17
4.0679846 0.58312458 -0.54712927 42 8
4.0827413 0.33978596 -0.48781666 53 10
4.1538105 0.59245676 -0.20999417 20 29
4.1563382 0.59281689 -0.15116873 41 37
4.0428042 0.69776982 -0.59685344 23 7
4.204987 0.85387361 -0.051241353 28 51
4.1099734 0.96123439 -0.29189861 23 23
4.0915136 0.70618343 -0.44639954 23 12
4.22013 0.85618746 0.0081978058 17 59
4.1331544 0.96591061 -0.23455369 25 27
4.1022887 0.70730734 -0.3893593 38 16
4.2196102 0.85608184 0.067815408 29 67
4.1555686 0.97039872 -0.17660549 36 34
4.1171961 0.70913965 -0.33250424 20 20
4.1624341 0.97200644 -0.1176486 22 42
4.131206 0.71155459 -0.27530605 25 24
4.1496058 0.71323478 -0.21803632 17 28
4.1671019 0.71549553 -0.1603058 38 36
4.0722113 0.9486295 -0.40570989 30 15
4.1838098 0.71761477 -0.1021255 20 44
4.0920558 0.95251274 -0.34904695 28 19
4.1996012 0.72032535 -0.042769153 28 52
4.0423279 1.0800157 -0.47262397 98 11
4.1662054 0.85355794 -0.16862081 70 35
4.1827984 0.85696393 -0.11012107 23 43
4.1909509 0.98717445 -0.058873925 30 50
4.2059441 0.99071586 0.00074787356 47 58
4.1277423 1.1006025 -0.18420747 41 33
4.1491399 1.106328 -0.12563561 36 41
4.1187444 0.45705998 -0.315366 30 21
4.0795054 0.44983822 -0.51031691 34 9
4.0938888 0.45141855 -0.42837736 42 13
4.1044679 0.45185584 -0.37178609 37 17
4.0699954 0.56892115 -0.54712927 36 8
4.1558533 0.57795364 -0.20999417 23 29
4.1534328 0.57761735 -0.15098725 38 37
4.0403371 0.68282849 -0.59612727 28 7
4.2030392 0.83821046 -0.051181141 33 51
4.1133041 0.94688213 -0.29189861 29 23
4.098855 0.69272608 -0.44693869 30 12
4.2181897 0.84047234 0.0081882067 20 59
4.1267719 0.949233 -0.23399723 34 27
4.104733 0.69298339 -0.3893593 28 16
4.2078652 0.83841121 0.067577183 29 67
4.1540627 0.95476508 -0.17639698 42 34
4.1196465 0.6947636 -0.33250424 25 20
4.1706724 0.95859355 -0.11778734 28 42
4.1385846 0.69795996 -0.27563655 30 24
4.1520705 0.69874567 -0.21803632 20 28
4.1695743 0.70094532 -0.1603058 35 36
4.0754981 0.93440902 -0.40570989 36 15
4.1862898 0.70300621 -0.1021255 20 44
4.0905004 0.93710732 -0.34862942 36 19
4.1922288 0.70400435 -0.042667922 25 52
4.0412712 1.0646291 -0.472058 97 11
4.1691599 0.83900994 -0.16862081 36 35
4.1808643 0.84136999 -0.10999106 22 43
4.1943712 0.97253925 -0.058873925 35 50
4.2093763 0.97602832 0.00074787356 45 58
4.223568 0.97932822 0.060787786 96 66
4.1315594 1.0861874 -0.18420747 47 33
4.1481447 1.0905632 -0.12548816 53 41
4.1153574 0.44214943 -0.31498328 30 21
4.076117 0.43507072 -0.50969452 34 9
4.0904946 0.43659961 -0.42785558 37 13
4.10602 0.43752584 -0.37178609 29 17
4.0768666 0.55537897 -0.54779482 55 8
4.1528969 0.56277353 -0.20974207 25 29
