# .PCD v0.7 - Point Cloud Data file format
VERSION 0.7
FIELDS x y z intensity ring
SIZE 4 4 4 4 2
TYPE F F F F U
COUNT 1 1 1 1 1
WIDTH 1201
HEIGHT 1
VIEWPOINT 0 0 0 1 0 0 0
POINTS 1201
DATA ascii
4.1060572 -0.64171439 -0.20797741 23 29
4.113492 -0.64287728 -0.14989842 49 37
4.0259886 -0.50914115 -0.5903185 32 7
4.2211308 -0.40806445 -0.05063922 40 51
4.1517019 -0.27844065 -0.28772366 44 23
4.0698853 -0.51468658 -0.44100821 36 12
4.2362862 -0.41027004 0.0081018126 36 59
4.1751852 -0.28073242 -0.23121485 44 27
4.0804491 -0.51674473 -0.38466254 46 16
4.235764 -0.41021967 0.067021318 63 67
4.1879234 -0.28231487 -0.17368639 44 34
4.1001267 -0.51996118 -0.32890314 25 20
4.2098866 -0.28378135 -0.1161225 44 42
4.1092353 -0.52111506 -0.27200103 33 24
4.1371908 -0.52612388 -0.21594985 25 28
4.1446466 -0.52780622 -0.15839514 44 36
4.1120477 -0.27941146 -0.39986533 43 15
4.1711402 -0.53191644 -0.10115518 31 44
4.1320858 -0.28148445 -0.3440367 47 19
4.1820645 -0.53330815 -0.042313624 41 52
4.20366 -0.52338886 0.015393768 43 60
4.2129622 -0.52454591 0.074209295 28 68
4.1790061 -0.39664796 -0.16642314 43 35
4.20082 -0.39870998 -0.10882094 35 43
4.2365799 -0.27739447 -0.058046658 42 50
4.209259 -0.15221132 -0.18160075 46 33
4.0430131 -0.76156759 -0.31306964 29 21
4.0516877 -0.76393759 -0.25641441 34 25
3.9533763 -0.98915571 -0.40958413 37 14
4.0695362 -0.76731002 -0.20005666 28 30
4.0766635 -0.76939368 -0.14289422 39 38
4.1334243 -0.65560615 -0.093428895 31 45
3.9986491 -0.75608426 -0.50596052 33 9
4.144074 -0.65803826 -0.03557694 40 53
4.0176725 -0.75968903 -0.42524669 31 13
4.0278773 -0.7623511 -0.36907232 33 17
4.0242352 -0.64043361 -0.54246998 43 8
3.9763968 -0.87734586 -0.48483494 37 10
4.0939298 -0.65446538 -0.20747322 25 29
4.1112227 -0.65723217 -0.14989842 43 37
4.0241871 -0.52319139 -0.5903185 36 7
4.2147055 -0.42229992 -0.050579008 42 51
4.14573 -0.29258323 -0.28737575 47 23
4.0680637 -0.52889001 -0.44100821 49 12
4.2348285 -0.42505494 0.0081018126 36 59
4.1642203 -0.29460657 -0.2306584 40 27
4.0786209 -0.53098506 -0.38466254 45 16
4.2392812 -0.42550012 0.067100726 32 67
4.1869125 -0.29693177 -0.17368639 45 34
4.0982871 -0.53427011 -0.32890314 30 20
4.2088704 -0.29847488 -0.1161225 44 42
4.1073918 -0.53545582 -0.27200103 49 24
4.1303778 -0.53991568 -0.21568903 29 28
4.1427789 -0.54227054 -0.15839514 46 36
4.1110473 -0.29376349 -0.39986533 48 15
4.1643014 -0.54582417 -0.10103389 44 44
4.1261077 -0.29555362 -0.34361917 48 19
4.1801772 -0.547903 -0.042313624 46 52
4.1968474 -0.53742468 0.015375443 47 60
4.2111058 -0.53924865 0.074209295 39 68
4.1775961 -0.41123298 -0.16642314 51 35
4.1944284 -0.4128834 -0.10869092 42 43
4.2305975 -0.29184031 -0.057977714 42 50
4.2559381 -0.29357231 0.00073827425 12 58
4.2087021 -0.16690345 -0.18160075 58 33
4.2208176 -0.16737312 -0.12357118 81 41
4.0403299 -0.77567571 -0.31306964 33 21
4.0489964 -0.77807593 -0.25641441 38 25
3.9498994 -1.0029496 -0.40958413 23 14
4.066833 -0.78151071 -0.20005666 29 30
4.1261764 -0.66922963 -0.093316324 44 45
4.0008569 -0.77097821 -0.50658286 44 9
4.0101132 -0.77276576 -0.42472491 43 13
4.0251923 -0.77640641 -0.36907232 42 17
4.0170836 -0.65368032 -0.54180437 48 8
3.9733098 -0.89122081 -0.48483494 38 10
4.0965486 -0.66955811 -0.20772532 31 29
4.1089034 -0.671579 -0.14989842 49 37
4.0174322 -0.53658092 -0.5895924 40 7
4.2132063 -0.43700939 -0.050579008 41 51
4.1446829 -0.30705273 -0.28737575 42 23
4.0612655 -0.54242957 -0.44046912 48 12
4.2283454 -0.43931982 0.0080922134 43 59
4.1681457 -0.30950716 -0.23093663 38 27
4.0767426 -0.54521883 -0.38466254 46 16
4.2327971 -0.43978065 0.067021318 37 67
4.1808681 -0.3111774 -0.17347787 40 34
4.0865169 -0.54725075 -0.32810286 40 20
4.2127872 -0.31353259 -0.11626124 38 42
4.1054974 -0.54979002 -0.27200103 43 24
4.1235194 -0.55366629 -0.21542825 39 28
4.1359091 -0.55606312 -0.15820406 48 36
4.1050344 -0.30774316 -0.39937827 47 15
4.1623707 -0.56035703 -0.10103389 42 44
4.1200824 -0.30958453 -0.3432017 46 19
4.1732836 -0.56182474 -0.042263009 46 52
4.1949463 -0.55207121 0.015375443 50 60
4.1761355 -0.42581299 -0.16642314 48 35
4.1929617 -0.42752212 -0.10869092 44 43
4.2245665 -0.30624774 -0.057908773 38 50
4.2548876 -0.3084265 0.00073827425 95 58
4.1981125 -0.18117173 -0.18116632 41 33
4.2301941 -0.18252757 -0.12386609 99 41
4.0327058 -0.78881556 -0.31268695 36 21
4.0413594 -0.79124403 -0.25610134 45 25
3.9415586 -1.0154858 -0.4090797 56 14
4.0591798 -0.79474032 -0.19981328 31 30
4.1238155 -0.68362862 -0.093316324 51 45
3.9981413 -0.78493911 -0.50658286 54 9
4.0073915 -0.78675896 -0.42472491 50 13
4.0224576 -0.79045218 -0.36907232 49 17
4.0147777 -0.66769856 -0.54180437 43 8
3.9653354 -0.90397817 -0.48423856 41 10
4.0941868 -0.68385357 -0.20772532 38 29
4.1016059 -0.68509382 -0.14971694 46 37
4.0204363 -0.55127257 -0.5903185 41 7
4.2066836 -0.45118231 -0.050518792 43 51
4.1386127 -0.32113582 -0.28702784 37 23
4.0593476 -0.55660272 -0.44046912 44 12
4.2267861 -0.4540768 0.0080922134 36 59
4.1670399 -0.32405481 -0.23093663 32 27
4.0748148 -0.55944604 -0.38466254 46 16
4.2312365 -0.45455316 0.067021318 45 67
4.1847377 -0.32615444 -0.17368639 43 34
4.0845819 -0.56151199 -0.32810286 38 20
4.2066841 -0.32785082 -0.1161225 30 42
4.0986109 -0.56343871 -0.27167055 43 24
4.1215615 -0.5680567 -0.21542825 43 28
4.1339431 -0.57049674 -0.15820406 44 36
4.1088967 -0.3224566 -0.39986533 40 15
4.1603899 -0.57488304 -0.10103389 43 44
4.1239438 -0.32435185 -0.34361917 43 19
4.1712976 -0.57638884 -0.042263009 45 52
4.1929932 -0.56671095 0.015375443 44 60
4.1646867 -0.43934339 -0.16602357 44 35
4.1914444 -0.44215575 -0.10869092 37 43
4.2184863 -0.3206166 -0.057839833 36 50
4.2438135 -0.32252538 0.00073652889 100 58
4.1924644 -0.19559643 -0.18094909 29 33
4.2145529 -0.1966072 -0.12342372 98 41
4.0250387 -0.80191153 -0.3123042 49 21
4.0385723 -0.80534619 -0.25610134 44 25
3.9476132 -1.0317628 -0.41008854 42 14
4.0612783 -0.8098833 -0.20005666 33 30
4.1164756 -0.69718391 -0.093203753 40 45
3.9953766 -0.79889047 -0.50658286 54 9
4.0046206 -0.80074257 -0.42472491 54 13
4.0147915 -0.80350924 -0.36862001 53 17
4.0124226 -0.68170863 -0.54180437 43 8
3.9669912 -0.91893774 -0.48483494 61 10
4.0917749 -0.6981408 -0.20772532 41 29
4.1041145 -0.70024794 -0.14989842 42 37
4.0184875 -0.56530309 -0.5903185 44 7
4.2001143 -0.46531507 -0.050458584 30 51
4.1374664 -0.33558032 -0.28702784 31 23
4.0573797 -0.57076907 -0.44046912 43 12
4.2251754 -0.46882829 0.0080922134 33 59
4.1609063 -0.33819726 -0.2306584 36 27
4.0679073 -0.57297266 -0.38419285 45 16
4.2296238 -0.46932018 0.067021318 23 67
4.1785936 -0.34035751 -0.17347787 35 34
4.077661 -0.57507104 -0.32770273 41 20
4.2005315 -0.3421303 -0.11598376 36 42
4.0966187 -0.5777421 -0.27167055 41 24
4.1146092 -0.58174175 -0.21516743 31 28
4.1319261 -0.58492345 -0.15820406 45 36
4.1027856 -0.33639398 -0.39937827 26 15
4.1534081 -0.58870113 -0.1009126 26 44
4.1178207 -0.33834037 -0.3432017 36 19
4.16431 -0.59024489 -0.042212397 37 52
4.1860375 -0.58065742 0.015357118 42 60
4.1631274 -0.45387819 -0.16602357 38 35
4.1849055 -0.45624405 -0.1085609 17 43
4.2173414 -0.33533993 -0.057839833 21 50
4.2476459 -0.33773029 0.0007374016 41 58
4.1867666 -0.2099839 -0.18073185 27 33
4.2238245 -0.21180929 -0.12371863 46 41
4.0222154 -0.81595671 -0.3123042 49 21
4.0308471 -0.81844378 -0.25578827 49 25
4.1140165 -0.71154881 -0.093203753 39 45
3.992564 -0.81283206 -0.50658286 55 9
4.001801 -0.81471646 -0.42472491 49 13
4.0070829 -0.81652236 -0.3681677 54 17
4.0100183 -0.69571042 -0.54180437 43 8
3.9637592 -0.93277955 -0.48483494 69 10
4.084393 -0.71156174 -0.20747322 17 29
4.0918002 -0.71285325 -0.14953546 41 37
4.01649 -0.57932687 -0.5903185 25 7
4.1984644 -0.47997335 -0.050458584 20 51
4.1362696 -0.35002071 -0.28702784 36 23
4.0553627 -0.58492857 -0.44046912 31 12
4.2235131 -0.48357403 0.0080922134 17 59
4.1597009 -0.35271946 -0.2306584 37 27
4.0609555 -0.58645797 -0.38372323 42 16
4.2229924 -0.48351461 0.066941902 28 67
4.1724024 -0.35452169 -0.17326936 29 34
4.0756292 -0.58930129 -0.32770273 17 20
4.1943316 -0.35637084 -0.11584502 33 42
4.0945768 -0.59203845 -0.27167055 38 24
4.1125536 -0.59610093 -0.21516743 14 28
4.1249142 -0.59862596 -0.15801299 36 36
4.1015868 -0.35071331 -0.39937827 22 15
4.1513281 -0.60319561 -0.1009126 13 44
4.1166148 -0.35271218 -0.3432017 19 19
4.1572766 -0.6040591 -0.042161781 31 52
4.1839852 -0.59526592 0.015357118 43 60
4.1565528 -0.46785054 -0.16582379 31 35
4.1783209 -0.47029218 -0.1084309 25 43
4.211163 -0.34964865 -0.0577709 19 50
4.2414579 -0.35214472 0.00073652889 48 58
4.1909966 -0.22486033 -0.18094909 25 33
4.2180691 -0.22628862 -0.12357118 43 41
4.0193424 -0.82999182 -0.3123042 41 21
4.0279655 -0.8325091 -0.25578827 49 25
3.9897022 -0.82676375 -0.50658286 56 9
3.9989328 -0.82868034 -0.42472491 52 13
4.0042081 -0.83050478 -0.3681677 42 17
4.0075655 -0.7097038 -0.54180437 42 8
3.9556515 -0.94545275 -0.48423856 49 10
4.0868011 -0.72668952 -0.20772532 20 29
4.0942068 -0.72800732 -0.14971694 38 37
4.0144429 -0.59334344 -0.5903185 25 7
4.1967635 -0.49462581 -0.050458584 30 51
4.1399918 -0.36489165 -0.28737575 21 23
4.0582137 -0.59980696 -0.44100821 28 12
4.2217994 -0.49831393 0.0080922134 17 59
4.1584444 -0.36723742 -0.2306584 27 27
4.063808 -0.60135782 -0.38419285 34 16
4.2262444 -0.49883687 0.067021318 23 67
4.1711392 -0.36908391 -0.17326936 39 34
4.0686169 -0.60279441 -0.3273026 20 20
4.1880832 -0.37057227 -0.11570629 27 42
4.0826149 -0.60486645 -0.27100953 30 24
4.2529902 -0.2519587 -0.065626696 86 49
4.1055083 -0.60971987 -0.21490662 20 28
4.1178584 -0.61228681 -0.15782194 41 36
4.1052947 -0.36546639 -0.39986533 24 15
4.1442528 -0.61694741 -0.10079131 14 44
4.1153584 -0.3670797 -0.3432017 23 19
4.1551423 -0.61856705 -0.042161781 14 52
4.0881429 -0.23160008 -0.46243569 81 11
4.1548944 -0.48235679 -0.16582379 32 35
4.1766534 -0.48487443 -0.1084309 30 43
4.2099166 -0.36434624 -0.0577709 22 50
4.2352209 -0.36652008 0.00073565618 44 58
4.259707 -0.36862355 0.059939586 95 66
4.190186 -0.23948826 -0.18094909 34 33
4.2172532 -0.24101104 -0.12357118 52 41
4.0164208 -0.84401691 -0.3123042 29 21
4.0201521 -0.8455351 -0.25547519 49 25
3.9770844 -0.83863431 -0.50533819 54 9
3.9862859 -0.84057844 -0.42368138 49 13
4.0012851 -0.844477 -0.3681677 46 17
4.0050635 -0.72368854 -0.54180437 41 8
3.9571507 -0.96042883 -0.48483494 40 10
4.0793257 -0.7400586 -0.20747322 23 29
4.0818076 -0.74050921 -0.14935398 31 37
4.0074558 -0.6066131 -0.5895924 28 7
4.1950111 -0.50927222 -0.050458584 24 51
4.1337252 -0.37888855 -0.28702784 26 23
4.0511804 -0.61322582 -0.44046912 23 12
4.2101068 -0.51184464 0.0080730151 28 59
4.1571369 -0.38175082 -0.2306584 27 27
4.0616841 -0.61553949 -0.38419285 23 16
4.2195139 -0.51298463 0.066941902 23 67
4.1698256 -0.38364166 -0.17326936 37 34
4.0664878 -0.61699289 -0.3273026 20 20
4.1917415 -0.38564387 -0.11584502 32 42
4.0804787 -0.61911374 -0.27100953 22 24
4.2371159 -0.26587683 -0.065393701 96 49
4.1082921 -0.62479711 -0.21516743 27 28
4.1156955 -0.62665713 -0.15782194 34 36
4.0990381 -0.37933901 -0.39937827 30 15
4.1420741 -0.6314097 -0.10079131 17 44
4.1190128 -0.38189945 -0.34361917 40 19
4.1529579 -0.63306737 -0.042161781 20 52
4.0674729 -0.24469389 -0.46017164 98 11
4.1531858 -0.49685714 -0.16582379 32 35
4.1749358 -0.49945071 -0.1084309 29 43
4.2135987 -0.37948465 -0.057839833 30 50
4.2289367 -0.38085622 0.00073478359 45 58
4.2384763 -0.38170928 0.059656851 99 66
4.1943111 -0.25441131 -0.18116632 41 33
4.2163868 -0.25573054 -0.12357118 55 41
4.0037003 -0.85594326 -0.31153873 39 21
4.0171757 -0.85956293 -0.25547519 49 25
3.9789829 -0.85355431 -0.50596052 41 9
3.9833274 -0.85448807 -0.42368138 37 13
3.9934449 -0.85739177 -0.36771542 29 17
4.0025129 -0.7376644 -0.54180437 30 8
4.0767179 -0.75429362 -0.20747322 25 29
4.0841117 -0.75566262 -0.14953546 31 37
4.0102029 -0.62135482 -0.5903185 28 7
4.1882458 -0.52329439 -0.050398368 31 51
4.1274118 -0.39284629 -0.28667992 35 23
4.049015 -0.62736326 -0.44046912 29 12
4.2082949 -0.52653754 0.0080730151 33 59
4.1508093 -0.39578897 -0.23038015 37 27
4.0595107 -0.62971365 -0.38419285 27 16
4.2127371 -0.52709162 0.066862501 29 67
4.1684613 -0.39819473 -0.17326936 38 34
4.0741596 -0.63271219 -0.32810286 23 20
4.1903696 -0.40027344 -0.11584502 37 42
4.0832229 -0.63411844 -0.27134004 28 24
4.2411499 -0.28099161 -0.065471366 33 49
4.1011515 -0.63836658 -0.21490662 23 28
4.1184192 -0.64178836 -0.15801299 42 36
4.0976892 -0.39364499 -0.39937827 38 15
4.1398449 -0.64586449 -0.10079131 28 44
4.1126957 -0.39580113 -0.3432017 38 19
4.1457825 -0.64679009 -0.042111166 25 52
4.0913844 -0.26044586 -0.46300167 96 11
4.1514258 -0.51135147 -0.16582379 40 35
4.1731668 -0.51402092 -0.1084309 35 43
4.2122483 -0.39419052 -0.057839833 37 50
4.227581 -0.39561561 0.00073478359 45 58
4.2470741 -0.39742735 0.059798222 35 66
4.1983824 -0.269366 -0.18138352 44 33
4.2104797 -0.27013135 -0.12342372 51 41
4.0006881 -0.86991358 -0.31153873 31 21
4.0092754 -0.87251723 -0.25516209 47 25
3.9711328 -0.86637896 -0.50533819 35 9
3.9851787 -0.86944914 -0.42420316 37 13
3.990428 -0.87132633 -0.36771542 30 17
3.9999139 -0.7516312 -0.54180437 32 8
4.07406 -0.76851946 -0.20747322 25 29
4.076539 -0.76898736 -0.14935398 40 37
4.0080099 -0.63534927 -0.5903185 29 7
4.1863937 -0.53791094 -0.050398368 38 51
4.1309795 -0.40773794 -0.28702784 41 23
4.0468006 -0.6414932 -0.44046912 34 12
4.2064309 -0.541224 0.0080730151 36 59
4.1543708 -0.41076356 -0.2306584 41 27
4.0572877 -0.64388013 -0.38419285 44 16
4.2158298 -0.54242969 0.066941902 33 67
4.1670456 -0.41274294 -0.17326936 43 34
4.0670037 -0.6461485 -0.32770273 25 20
4.1839733 -0.41440868 -0.11570629 45 42
4.0809841 -0.64836776 -0.27134004 31 24
4.2301679 -0.29510722 -0.065316036 49 49
4.093967 -0.65189385 -0.2146458 25 28
4.1112204 -0.65537459 -0.15782194 46 36
4.0962901 -0.40794623 -0.39937827 46 15
4.1326294 -0.6595242 -0.10067002 32 44
4.111289 -0.4101547 -0.3432017 46 19
4.1434999 -0.66125757 -0.042111166 30 52
4.0805364 -0.27406913 -0.46186969 40 11
4.1496158 -0.52583951 -0.16582379 43 35
4.1713476 -0.5285849 -0.1084309 36 43
4.2058706 -0.40841156 -0.0577709 39 50
4.2261744 -0.4103702 0.00073478359 45 58
4.2357078 -0.41128984 0.059656851 43 66
4.187449 -0.28335384 -0.18094909 49 33
4.214499 -0.40998638 0.11800362 49 71
4.204525 -0.28449404 -0.12327625 51 41
3.9927604 -0.88279516 -0.31115603 33 21
3.9680841 -0.88023549 -0.50533819 36 9
3.9772649 -0.88227588 -0.42368138 37 13
3.9873621 -0.88525021 -0.36771542 34 17
3.9972661 -0.76558894 -0.54180437 35 8
4.0713525 -0.78273582 -0.20747322 29 29
4.0008836 -0.64854503 -0.5895924 33 7
4.1844912 -0.55252087 -0.050398368 47 51
4.1245689 -0.42165121 -0.28667992 46 23
4.0445366 -0.65561527 -0.44046912 40 12
4.1995587 -0.55525041 0.008063416 36 59
4.1429782 -0.42425182 -0.2301019 39 27
4.0550156 -0.65803879 -0.38419285 48 16
4.2089543 -0.55648899 0.066862501 43 67
4.1606102 -0.4267796 -0.17306086 46 34
4.0647235 -0.66034102 -0.32770273 25 20
4.1775289 -0.42850408 -0.11556756 45 42
4.0737715 -0.66180974 -0.27100953 38 24
4.2191401 -0.30914962 -0.065160707 43 49
4.0916672 -0.66618049 -0.2146458 25 28
4.2544932 -0.31245515 -0.0066450597 95 57
4.1089077 -0.66972142 -0.15782194 46 36
4.094841 -0.42224246 -0.39937827 48 15
4.1253686 -0.67314136 -0.10054874 40 44
4.1098323 -0.4245033 -0.3432017 47 19
4.1362314 -0.67491245 -0.04206055 38 52
4.069643 -0.28761986 -0.46073762 42 11
4.1428008 -0.53967774 -0.16562399 43 35
4.1645198 -0.54249853 -0.10830089 41 43
4.2044191 -0.42309034 -0.0577709 39 50
4.2197404 -0.42462233 0.00073391094 44 58
4.2193227 -0.42458054 0.059444804 43 66
4.1814508 -0.29761884 -0.18073185 45 33
4.2279611 -0.42618963 0.11842506 99 71
4.2084913 -0.29951918 -0.12342372 47 41
4.0042448 -0.90001261 -0.3123042 44 21
3.9601483 -0.89298815 -0.50471586 42 9
3.9741607 -0.89615375 -0.42368138 43 13
3.9842477 -0.89916331 -0.36771542 42 17
3.9994328 -0.78048718 -0.54246998 50 8
4.0636954 -0.79598236 -0.20722115 34 29
3.9985955 -0.66250676 -0.5895924 37 7
4.1775823 -0.56645423 -0.050338153 39 51
4.1230721 -0.43604609 -0.28667992 45 23
4.0373192 -0.66891748 -0.43992999 47 12
4.1926408 -0.56923532 0.0080538159 36 59
4.1414723 -0.4387109 -0.2301019 52 27
4.0477834 -0.67137557 -0.38372323 49 16
4.1541262 -0.44077632 -0.17285235 42 34
4.0574765 -0.67370975 -0.3273026 34 20
4.1809778 -0.44360799 -0.11570629 42 42
4.0665145 -0.67520922 -0.27067903 44 24
4.2180347 -0.32387528 -0.065160707 42 49
4.0893168 -0.68045908 -0.2146458 38 28
4.2483912 -0.32692492 -0.0066372049 97 57
4.1016164 -0.68323982 -0.15763086 47 36
4.0883937 -0.43600908 -0.39889121 48 15
4.1229935 -0.68753749 -0.10054874 45 44
4.1033702 -0.43832064 -0.34278417 46 19
4.0686145 -0.30182379 -0.46073762 41 11
4.1408916 -0.5541355 -0.16562399 47 35
4.162601 -0.55703211 -0.10830089 45 43
4.1929708 -0.43673435 -0.05763302 37 50
4.2182326 -0.43934941 0.00073391094 43 58
4.2178149 -0.43930614 0.059444804 41 66
4.1803865 -0.31221303 -0.18073185 40 33
4.2214766 -0.4404299 0.11828459 97 71
4.202436 -0.31384 -0.12327625 47 41
3.9767807 -0.9084239 -0.31039056 42 21
3.9570072 -0.90680623 -0.50471586 54 9
3.9710085 -0.91002071 -0.42368138 56 13
3.9810848 -0.91306543 -0.36771542 50 17
4.001545 -0.79540992 -0.54313558 45 8
4.0608926 -0.81016248 -0.20722115 40 29
3.9962585 -0.67646044 -0.5895924 44 7
4.1755795 -0.58103329 -0.050338153 43 51
4.1215248 -0.45043564 -0.28667992 37 23
4.0349598 -0.68300629 -0.43992999 48 12
4.1906281 -0.58386701 0.0080538159 43 59
4.1399155 -0.45316467 -0.2301019 34 27
4.0454149 -0.68550092 -0.38372323 49 16
4.1525626 -0.45527425 -0.17285235 36 34
4.0551004 -0.68786889 -0.3273026 42 20
4.1694665 -0.45711657 -0.11542881 33 42
4.0641332 -0.6893999 -0.27067903 44 24
4.211895 -0.33820128 -0.065083049 26 49
4.0869164 -0.69472927 -0.2146458 41 28
4.2472243 -0.34175256 -0.0066372049 32 57
4.0992069 -0.69755292 -0.15763086 43 36
4.0868473 -0.45027754 -0.39889121 44 15
4.1156406 -0.70108646 -0.10042744 49 44
4.1018152 -0.4526414 -0.34278417 43 19
4.0873489 -0.31754512 -0.46300167 41 11
4.1389318 -0.56858659 -0.16562399 43 35
4.1606307 -0.57155895 -0.10830089 46 43
4.1914206 -0.45136783 -0.05763302 38 50
4.2166734 -0.45407107 0.00073391094 40 58
4.2162557 -0.45402634 0.059444804 37 66
4.1792712 -0.32680342 -0.18073185 27 33
4.2149439 -0.45463011 0.11814411 97 71
4.1963315 -0.32812214 -0.12312879 37 41
3.9881523 -0.92568702 -0.31153873 41 21
3.9538176 -0.92061323 -0.50471586 54 9
3.9678078 -0.92387658 -0.42368138 66 13
3.9730244 -0.9258244 -0.36726314 52 17
3.9987438 -0.80937308 -0.54313558 42 8
4.0580401 -0.82433271 -0.20722115 41 29
3.9938729 -0.69040585 -0.5895924 35 7
4.1685762 -0.59490073 -0.050277941 30 51
4.1149702 -0.46426365 -0.28633201 33 23
4.0276527 -0.6962406 -0.43939084 45 12
4.1786647 -0.59708071 0.0080346176 42 59
4.1383085 -0.46761292 -0.2301019 36 27
4.0380931 -0.69876975 -0.38325354 45 16
4.1459842 -0.46920803 -0.17264384 36 34
4.0477638 -0.70116967 -0.32690251 44 20
4.1678452 -0.47166792 -0.11542881 37 42
4.0617018 -0.70358217 -0.27067903 44 24
4.2106886 -0.35290146 -0.065083049 18 49
4.0844665 -0.70899105 -0.2146458 34 28
4.2410226 -0.35616201 -0.0066293497 41 57
4.0918236 -0.71100277 -0.1574398 45 36
4.0852504 -0.46454057 -0.39889121 29 15
4.1131682 -0.71544844 -0.10042744 41 44
4.1002097 -0.46695665 -0.34278417 35 19
4.0862155 -0.33181068 -0.46300167 43 11
4.1319742 -0.58233529 -0.1654242 43 35
4.1586103 -0.58607876 -0.10830089 28 43
4.1848502 -0.46544638 -0.05756408 22 50
4.210093 -0.4682377 0.00073303824 34 58
4.2146454 -0.46874109 0.059444804 17 66
4.1781054 -0.34138978 -0.18073185 23 33
4.2133312 -0.46934021 0.11814411 55 71
4.1951609 -0.34276804 -0.12312879 32 41
3.9457521 -0.93326509 -0.50409347 49 9
3.9645586 -0.93772113 -0.42368138 54 13
3.969768 -0.93968725 -0.36726314 63 17
3.9910402 -0.82232565 -0.54246998 42 8
3.9963107 -0.70520198 -0.5903185 29 7
4.1615272 -0.6087265 -0.050217733 25 51
4.1133246 -0.47862479 -0.28633201 37 23
4.0300932 -0.71115875 -0.43992999 37 12
4.1815023 -0.61238599 0.0080442177 39 59
4.1316919 -0.48148084 -0.22982369 37 27
4.0356288 -0.71286106 -0.38325354 45 16
4.144321 -0.48367736 -0.17264384 26 34
4.0452919 -0.71529472 -0.32690251 41 20
4.1661739 -0.48621354 -0.11542881 36 42
4.0592213 -0.71775585 -0.27067903 40 24
4.2044506 -0.36716682 -0.065005377 20 49
4.0819669 -0.72324419 -0.2146458 33 28
4.2347717 -0.37053233 -0.0066214949 42 57
4.0893164 -0.7252816 -0.1574398 42 36
4.0885463 -0.4793742 -0.39937827 22 15
4.2593594 -0.37266186 0.052540045 98 65
4.1057243 -0.72892863 -0.10030615 42 44
4.0936065 -0.48068833 -0.34236664 23 19
4.0850325 -0.3460722 -0.46300167 42 11
4.1299167 -0.59675503 -0.1654242 38 35
4.1515927 -0.59987855 -0.10817087 29 43
4.1881671 -0.48061824 -0.05763302 20 50
4.2084332 -0.48293081 0.00073303824 30 58
4.2129836 -0.48345008 0.059444804 18 66
4.1719103 -0.35555229 -0.18051462 27 33
4.2265644 -0.48574716 0.11856554 95 71
4.1889591 -0.35698992 -0.12298134 31 41
3.9564261 -0.95039088 -0.4231596 50 13
3.9664638 -0.95353854 -0.36726314 53 17
3.9881456 -0.83625197 -0.54246998 42 8
3.9889557 -0.71827126 -0.5895924 28 7
4.1593771 -0.62324923 -0.050217733 25 51
4.1066766 -0.49238947 -0.2859841 21 23
4.0275865 -0.72522193 -0.43992999 20 12
4.1694493 -0.62549853 0.0080250185 23 59
4.1299863 -0.49590021 -0.22982369 26 27
4.0331159 -0.72694367 -0.38325354 42 16
4.1426072 -0.49814081 -0.17264384 28 34
4.0378647 -0.72852671 -0.32650238 20 20
4.1594882 -0.50015974 -0.11529008 27 42
4.0517807 -0.73103559 -0.27034852 37 24
4.2031431 -0.38184088 -0.065005377 23 49
4.0745034 -0.73660088 -0.21438502 23 28
4.2284732 -0.38486341 -0.006613641 39 57
4.08676 -0.73955154 -0.1574398 42 36
4.0868483 -0.49364296 -0.39937827 22 15
4.2480745 -0.38663 0.052416131 97 65
4.0968499 -0.49556988 -0.34278417 21 19
4.0837994 -0.36032954 -0.46300167 43 11
4.1228657 -0.61043757 -0.16522442 29 35
4.1445284 -0.61363649 -0.10804085 28 43
4.1864643 -0.49523479 -0.05763302 24 50
4.2067218 -0.49761808 0.00073303824 30 58
4.2112703 -0.49815321 0.059444804 21 66
4.1656675 -0.36967567 -0.18029742 33 33
4.1876874 -0.3716099 -0.12298134 32 41
3.9482541 -0.96301532 -0.42263782 51 13
3.9582741 -0.96619564 -0.36681083 49 17
3.9706633 -0.8470645 -0.54047316 42 8
3.9718275 -0.72951204 -0.58741409 28 7
4.157176 -0.63776445 -0.050217733 20 51
4.1049323 -0.50672144 -0.2859841 26 23
4.0201406 -0.73837918 -0.43939084 17 12
4.1282301 -0.51031351 -0.22982369 27 27
4.0305538 -0.74101746 -0.38325354 32 16
4.1408434 -0.51259816 -0.17264384 35 34
4.0401998 -0.74351853 -0.32690251 25 20
4.1626778 -0.51528686 -0.11542881 32 42
4.0492043 -0.74517447 -0.27034852 24 24
4.2067623 -0.39697558 -0.065083049 28 49
4.071908 -0.75081909 -0.21438502 25 28
4.2271042 -0.39962119 -0.006613641 44 57
4.0841537 -0.75381249 -0.1574398 32 36
4.0851002 -0.50790578 -0.39937827 27 15
4.2417207 -0.40099004 0.052354172 41 65
4.0950956 -0.50986755 -0.34278417 29 19
4.0825171 -0.37458247 -0.46300167 38 11
4.1207094 -0.62482536 -0.16522442 32 35
4.1423612 -0.62809986 -0.10804085 33 43
4.1797462 -0.50924373 -0.05756408 28 50
4.199995 -0.51169765 0.00073216553 37 58
4.1995788 -0.51164722 0.059303433 23 66
4.1693263 -0.38466883 -0.18051462 36 33
4.1913414 -0.3866801 -0.12312879 43 41
3.9496951 -0.9779886 -0.4231596 46 13
3.9548774 -0.98000669 -0.36681083 46 17
3.9870534 -0.8651253 -0.54313558 42 8
3.9741187 -0.74428165 -0.58814019 28 7
4.1499844 -0.6514982 -0.050157517 30 51
4.1080871 -0.52167237 -0.28633201 32 23
4.017539 -0.75240755 -0.43939084 25 12
4.1264238 -0.52472061 -0.22982369 37 27
4.0279427 -0.75508225 -0.38325354 32 16
4.139029 -0.5270493 -0.17264384 39 34
4.0326805 -0.75669837 -0.32650238 28 20
4.1608539 -0.52981418 -0.11542881 38 42
4.0416756 -0.75838494 -0.27001804 27 24
4.2053514 -0.41165745 -0.065083049 41 49
4.0643549 -0.76410609 -0.2141242 28 28
4.2207065 -0.41389054 -0.0066057858 44 57
4.0765872 -0.76714087 -0.15724872 28 36
4.0783658 -0.52153426 -0.39889121 35 15
4.2402954 -0.41579396 0.052354172 51 65
4.0932908 -0.52415901 -0.34278417 36 19
4.0861306 -0.38929752 -0.4635677 47 11
4.1234407 -0.63996989 -0.1654242 37 35
4.1401434 -0.64255559 -0.10804085 30 43
4.1779437 -0.52383065 -0.05756408 35 50
4.1981835 -0.52635527 0.00073216553 45 58
4.2076898 -0.52754104 0.059444804 30 66
4.1679578 -0.39922014 -0.18051462 44 33
4.1899657 -0.40130824 -0.12312879 46 41
3.9510796 -0.9929837 -0.42368138 43 13
3.9466038 -0.99258929 -0.36635852 38 17
3.9840093 -0.8790375 -0.54313558 41 8
3.9714963 -0.75814933 -0.58814019 29 7
4.1476851 -0.66598034 -0.050157517 38 51
4.1012945 -0.53536665 -0.2859841 39 23
4.0148878 -0.76642674 -0.43939084 32 12
4.1196165 -0.53847742 -0.22954544 40 27
4.0252824 -0.76913774 -0.38325354 33 16
4.1322098 -0.54084885 -0.17243533 41 34
4.0349107 -0.77170616 -0.32690251 29 20
4.1540227 -0.54368955 -0.11529008 45 42
4.0439034 -0.77342492 -0.27034852 33 24
4.1989145 -0.42583436 -0.065005377 43 49
4.0616627 -0.77828872 -0.2141242 29 28
4.2192364 -0.42862105 -0.0066057858 44 57
4.0738845 -0.78136617 -0.15724872 37 36
4.0765204 -0.53576726 -0.39889121 45 15
4.228869 -0.42959097 0.052230254 38 65
4.0914359 -0.53844404 -0.34278417 45 19
4.0748591 -0.4025906 -0.46243569 49 11
4.1162472 -0.65357792 -0.16522442 43 35
4.1378756 -0.65700346 -0.10804085 36 43
4.1760893 -0.5384112 -0.05756408 39 50
4.1913614 -0.54037029 0.00073129294 47 58
4.1959047 -0.5409531 0.059303433 28 66
4.1615682 -0.41327739 -0.18029742 48 33
4.1785927 -0.41495264 -0.12283388 54 41
3.937953 -1.0043077 -0.42263782 43 13
3.9712455 -0.89076835 -0.54180437 40 8
3.9833946 -0.77483976 -0.5903185 30 7
4.1404014 -0.67964649 -0.050097302 41 51
4.099401 -0.54967964 -0.2859841 46 23
4.007309 -0.77948827 -0.43885171 36 12
4.1177115 -0.55285436 -0.22954544 40 27
4.0176864 -0.78223324 -0.38278386 40 16
4.1302972 -0.5552696 -0.17243533 45 34
4.0321922 -0.78578585 -0.32690251 32 20
4.1520996 -0.55818647 -0.11529008 46 42
4.0411792 -0.78753603 -0.27034852 38 24
4.197402 -0.4404887 -0.065005377 40 49
4.0589209 -0.79246187 -0.2141242 32 28
4.2177143 -0.44334629 -0.0066057858 43 57
4.074626 -0.54999375 -0.39889121 47 15
4.2173986 -0.44331336 0.052106343 43 65
4.0895314 -0.55272257 -0.34278417 47 19
4.0734286 -0.41681206 -0.46243569 39 11
4.1188722 -0.66874111 -0.1654242 43 35
4.1256886 -0.6698451 -0.10778084 42 43
4.1692286 -0.55233186 -0.057495143 37 50
4.1844926 -0.55434412 0.00073042029 49 58
4.1551304 -0.42729488 -0.18008018 49 33
4.1721463 -0.42902929 -0.12268642 51 41
3.9392371 -1.0192952 -0.4231596 39 13
3.9777753 -0.90682948 -0.54313558 38 8
3.9758127 -0.78777874 -0.5895924 35 7
4.0925159 -0.56330895 -0.28563619 44 23
4.0045638 -0.79347157 -0.43885171 49 12
4.1108108 -0.56654608 -0.22926719 40 27
4.0149317 -0.79625279 -0.38278386 49 16
4.1283336 -0.56968367 -0.17243533 43 34
4.0245357 -0.79888624 -0.32650238 33 20
4.1451745 -0.57199657 -0.11515135 44 42
4.0335121 -0.80066687 -0.27001804 45 24
4.1858978 -0.45406824 -0.064850047 43 49
4.0561304 -0.80662525 -0.2141242 40 28
4.2161412 -0.45806617 -0.0066057858 43 57
4.0677509 -0.56353372 -0.39840415 46 15
4.2108545 -0.45749652 0.052044384 43 65
4.0826416 -0.56631297 -0.34236664 44 19
4.0719485 -0.43102843 -0.46243569 39 11
4.1066556 -0.68148273 -0.16502464 44 35
4.1233253 -0.68424237 -0.10778084 47 43
4.1623206 -0.56621099 -0.057426203 37 50
4.1825318 -0.56894726 0.00073042029 46 58
4.1536136 -0.44179642 -0.18008018 41 33
4.1706233 -0.44359022 -0.12268642 44 41
3.968189 -0.80067426 -0.58886629 39 7
4.0905247 -0.57759106 -0.28563619 37 23
4.0017695 -0.80744535 -0.43885171 50 12
4.108808 -0.58089203 -0.22926719 36 27
4.0121279 -0.81026262 -0.38278386 48 16
4.1263194 -0.58409077 -0.17243533 40 34
4.0217228 -0.81292963 -0.32650238 49 20
4.1431527 -0.58646244 -0.11515135 35 42
4.0306931 -0.81474161 -0.27001804 47 24
4.1842871 -0.46867695 -0.064850047 26 49
4.0483961 -0.81978863 -0.21386339 35 28
4.2145166 -0.47278044 -0.0066057858 41 57
4.0657592 -0.5777294 -0.39840415 45 15
4.214201 -0.47274533 0.052106343 25 65
4.0707731 -0.57916337 -0.34153157 44 19
4.0654802 -0.44470385 -0.46186969 40 11
4.1042519 -0.69581342 -0.16502464 42 35
4.1209121 -0.69863129 -0.10778084 45 43
4.1603189 -0.58073682 -0.057426203 34 50
4.1755681 -0.58285552 0.00072954758 44 58
4.1470799 -0.45575133 -0.17986295 29 33
4.1690493 -0.45814574 -0.12268642 41 41
3.9605241 -0.81352621 -0.58814019 57 7
4.0835462 -0.59115469 -0.28528827 34 23
3.9989269 -0.82140923 -0.43885171 47 12
4.1067553 -0.59523088 -0.22926719 36 27
4.0043983 -0.82326078 -0.38231418 48 16
4.1242557 -0.59849077 -0.17243533 34 34
4.0139785 -0.82595927 -0.32610223 48 20
4.1361337 -0.60020661 -0.11501261 42 42
4.0278244 -0.8288064 -0.27001804 57 24
4.177659 -0.4827106 -0.06477239 19 49
4.0455098 -0.83391511 -0.21386339 41 28
4.2078729 -0.4869186 -0.006597931 28 57
4.0637174 -0.59191805 -0.39840415 37 15
4.2075582 -0.48688245 0.052044384 18 65
4.0687265 -0.59336942 -0.34153157 36 19
4.0639033 -0.45889235 -0.46186969 43 11
4.0968747 -0.70928526 -0.16482484 38 35
4.1135225 -0.71216089 -0.10765082 41 43
4.153317 -0.59455019 -0.057357263 18 50
4.1735082 -0.59742743 0.00072954758 41 58
4.1404996 -0.46966597 -0.17964572 27 33
4.1624584 -0.47213677 -0.12253895 33 41
3.9625027 -0.82835776 -0.58886629 55 7
4.0765238 -0.60467672 -0.28494036 37 23
3.9960353 -0.83536303 -0.43885171 42 12
4.0997138 -0.60883236 -0.22898896 25 27
4.0063734 -0.8382526 -0.38278386 45 16
4.112258 -0.61142039 -0.17201833 24 34
4.0110707 -0.83996558 -0.32610223 44 20
4.1340132 -0.61464071 -0.11501261 34 42
4.0249066 -0.84286106 -0.27001804 54 24
4.180913 -0.49787715 -0.064850047 27 49
4.2011819 -0.50101614 -0.0065900763 28 57
4.0665493 -0.60683072 -0.39889121 24 15
4.2058325 -0.50156659 0.052044384 19 65
4.0666304 -0.60756832 -0.34153157 40 19
4.0672121 -0.47364533 -0.46243569 27 11
4.0943737 -0.72358179 -0.16482484 32 35
4.151216 -0.60904431 -0.057357263 16 50
4.1664495 -0.61126935 0.00072867487 42 58
4.1437974 -0.48469204 -0.17986295 26 33
4.1607847 -0.48666358 -0.12253895 33 41
3.9595871 -0.84218436 -0.58886629 54 7
4.0694556 -0.61815679 -0.28459242 21 23
3.9882331 -0.84827328 -0.43831262 34 12
4.0926275 -0.622392 -0.22871074 29 27
3.9985538 -0.85119653 -0.38231418 46 16
4.1100984 -0.62577116 -0.17201833 27 34
4.012989 -0.85499966 -0.32650238 28 20
4.1269007 -0.62831825 -0.11487387 27 42
4.0219398 -0.85690552 -0.27001804 38 24
4.1741872 -0.51186413 -0.06477239 24 49
4.1994081 -0.51567793 -0.0065900763 28 57
4.0594864 -0.62027347 -0.39840415 23 15
4.1990938 -0.51563966 0.051982425 22 65
4.0595598 -0.62100971 -0.34111407 19 19
4.0655336 -0.48783967 -0.46243569 45 11
4.0918231 -0.73786932 -0.16482484 32 35
4.149065 -0.62353098 -0.057357263 21 50
4.1420803 -0.49915364 -0.17986295 29 33
4.159061 -0.50118452 -0.12253895 33 41
3.9469531 -0.85391015 -0.58741409 54 7
4.0771317 -0.63388425 -0.28528827 25 23
3.9852476 -0.86218971 -0.43831262 37 12
4.0953636 -0.63743871 -0.22898896 26 27
3.995558 -0.8651489 -0.38231418 32 16
4.1128259 -0.64088029 -0.17222685 40 34
4.0002384 -0.86689252 -0.3257021 28 20
4.1246824 -0.64271998 -0.11487387 33 42
4.0140481 -0.86988342 -0.26968753 32 24
4.1723752 -0.52643168 -0.06477239 28 49
4.1975822 -0.53033352 -0.0065900763 37 57
4.0523796 -0.63367444 -0.39791715 26 15
4.197268 -0.53029406 0.051982425 26 65
4.0622897 -0.63594377 -0.34153157 26 19
4.0638061 -0.50202811 -0.46243569 48 11
4.0793948 -0.75034422 -0.16442525 30 35
4.141921 -0.63725305 -0.057288323 23 50
4.1353545 -0.5129987 -0.17964572 36 33
4.1572862 -0.51569933 -0.12253895 43 41
3.9487793 -0.86874449 -0.58814019 24 7
4.0699682 -0.64733201 -0.28494036 32 23
3.9822137 -0.87609553 -0.43831262 36 12
4.0881829 -0.65094846 -0.22871074 36 27
3.9925139 -0.87909067 -0.38231418 34 16
4.1105638 -0.65523279 -0.17222685 37 34
3.9971879 -0.88085073 -0.3257021 33 20
4.1273499 -0.65789747 -0.11501261 39 42
4.0158596 -0.8849628 -0.27001804 37 24
4.1705122 -0.54099274 -0.06477239 37 49
4.1907473 -0.54434294 -0.0065822219 43 57
4.055057 -0.64859867 -0.39840415 32 15
4.1953917 -0.54494202 0.051982425 30 65
4.0600452 -0.6501199 -0.34153157 36 19
4.0620289 -0.51621038 -0.46243569 46 11
4.0816617 -0.76549852 -0.16462505 40 35
4.1396713 -0.65170723 -0.057288323 29 50
4.1335387 -0.52743065 -0.17964572 43 33
4.1554608 -0.53020781 -0.12253895 47 41
4.0676837 -0.66153491 -0.28494036 37 23
3.9791312 -0.88999069 -0.43831262 38 12
4.085886 -0.66521502 -0.22871074 40 27
3.9845634 -0.89193517 -0.38184452 35 16
4.108252 -0.66957742 -0.17222685 40 34
3.9892254 -0.89370918 -0.325302 35 20
4.1151614 -0.670699 -0.11473513 47 42
4.1636415 -0.55489123 -0.064694718 38 49
4.1888208 -0.55896807 -0.0065822219 45 57
4.0527682 -0.66274953 -0.39840415 41 15
4.1885071 -0.55892646 0.051920474 40 65
4.0626693 -0.66509002 -0.34194911 41 19
4.055275 -0.52974731 -0.46186969 49 11
4.1324348 -0.66536182 -0.05721939 26 50
4.1316724 -0.54185611 -0.17964572 46 33
4.1486287 -0.5440644 -0.1223915 52 41
4.0653496 -0.67572975 -0.28494036 44 23
3.9711528 -0.90277374 -0.43777347 40 12
4.0835395 -0.67947334 -0.22871074 44 27
3.9814258 -0.90583849 -0.38184452 42 16
4.1009612 -0.68309617 -0.17201833 43 34
3.990941 -0.90873462 -0.3257021 40 20
4.1127954 -0.68505949 -0.11473513 47 42
4.1616793 -0.56942171 -0.064694718 39 49
4.18189 -0.5729121 -0.0065743672 46 57
4.0455217 -0.67607534 -0.39791715 46 15
4.055408 -0.67844826 -0.34153157 46 19
4.0534015 -0.5438996 -0.46186969 39 11
4.119854 -0.55495036 -0.17921127 48 33
4.1467047 -0.55854249 -0.1223915 52 41
4.0629659 -0.68991637 -0.28494036 47 23
3.972821 -0.91774833 -0.43831262 56 12
4.07622 -0.69288987 -0.22843249 41 27
3.9782395 -0.91973072 -0.38184452 58 16
4.0985518 -0.69740701 -0.17201833 42 34
3.9828889 -0.92153722 -0.325302 41 20
4.1054516 -0.69857645 -0.1145964 45 42
4.1547151 -0.58325464 -0.064617053 43 49
4.1798649 -0.58750612 -0.0065743672 45 57
4.0431376 -0.6901927 -0.39791715 50 15
4.0481033 -0.69176418 -0.34111407 47 19
4.0514784 -0.55804533 -0.46186969 39 11
4.1228404 -0.57000762 -0.17942852 38 33
4.1397781 -0.57233375 -0.12224404 46 41
4.0556178 -0.70324552 -0.28459242 41 23
3.9695933 -0.93161047 -0.43831262 65 12
4.0737767 -0.70711434 -0.22843249 43 27
3.9750051 -0.93361181 -0.38184452 66 16
4.0911694 -0.71085733 -0.17180982 47 34
3.9747958 -0.93429482 -0.32490188 35 20
4.1029878 -0.71290296 -0.1145964 44 42
4.1526537 -0.59775376 -0.064617053 25 49
4.1728392 -0.60138416 -0.0065665124 43 57
4.0358005 -0.70345038 -0.39743009 47 15
4.0456643 -0.70589048 -0.34111407 47 19
4.0495057 -0.57218421 -0.46186969 40 11
4.1208258 -0.58439553 -0.17942852 29 33
4.1377549 -0.58678085 -0.12224404 39 41
4.0531378 -0.71739799 -0.28459242 37 23
3.9663172 -0.94546127 -0.43831262 62 12
4.0712833 -0.72133023 -0.22843249 37 27
3.9668794 -0.94632697 -0.38137484 62 16
4.0886631 -0.72513378 -0.17180982 37 34
3.9763584 -0.94932038 -0.325302 40 20
4.095552 -0.72635096 -0.11445767 36 42
4.1455951 -0.61152035 -0.064539388 20 49
4.1707144 -0.61594647 -0.0065665124 40 57
4.0333204 -0.71753371 -0.39743009 43 15
4.03827 -0.71913791 -0.34069654 41 19
4.0474834 -0.58631611 -0.46186969 42 11
4.1187606 -0.59877634 -0.17942852 23 33
4.1356812 -0.60122073 -0.12224404 32 41
4.0457006 -0.73065841 -0.28424454 38 23
3.9581614 -0.95813167 -0.43777347 48 12
4.0687404 -0.73553729 -0.22843249 28 27
3.963552 -0.96016818 -0.38137484 46 16
4.0811906 -0.73851508 -0.17160131 26 34
4.0880728 -0.73975593 -0.11431892 49 42
4.1434355 -0.62598747 -0.064539388 18 49
4.1635938 -0.62975782 -0.0065586576 24 57
4.0307913 -0.73160827 -0.39743009 29 15
4.0357347 -0.7332297 -0.34069654 36 19
4.0454125 -0.60044092 -0.46186969 33 11
4.1067624 -0.61168689 -0.17899404 25 33
4.1286135 -0.61492139 -0.12209658 32 41
4.0431252 -0.74477613 -0.28424454 37 23
3.9547927 -0.97194237 -0.43777347 58 12
4.0612383 -0.74883336 -0.22815426 39 27
3.9553418 -0.97280937 -0.38090515 59 16
4.0736752 -0.75185311 -0.17139281 25 34
4.1412253 -0.64044696 -0.064539388 23 49
4.028213 -0.74567384 -0.39743009 23 15
4.0331507 -0.74731261 -0.34069654 24 19
4.0432916 -0.6145584 -0.46186969 28 11
4.1046023 -0.62601846 -0.17899404 27 33
4.1215005 -0.62858009 -0.12194911 33 41
4.0405011 -0.75888473 -0.28424454 27 23
3.9561989 -0.9869439 -0.43831262 62 12
4.0536928 -0.76208591 -0.22787601 28 27
3.9519219 -0.98661017 -0.38090515 58 16
4.0710254 -0.76606834 -0.17139281 37 34
4.1340256 -0.65412176 -0.06446173 25 49
4.0255852 -0.7597304 -0.39743009 28 15
4.0305176 -0.76138628 -0.34069654 27 19
4.041122 -0.62866837 -0.46186969 43 11
4.1073284 -0.64110833 -0.17921127 37 33
4.1192813 -0.64296299 -0.12194911 43 41
4.0378275 -0.77298409 -0.28424454 35 23
3.9430914 -0.99830872 -0.43723434 49 12
4.0559115 -0.77716762 -0.22815426 39 27
3.9436285 -0.99917704 -0.38043547 53 16
4.0634198 -0.77933633 -0.1711843 32 34
4.1317172 -0.66854823 -0.06446173 30 49
4.0229087 -0.77377766 -0.39743009 31 15
4.0327287 -0.77638954 -0.34111407 32 19
4.0389028 -0.64277065 -0.46186969 54 11
4.1001315 -0.6546585 -0.17899404 35 33
4.1170115 -0.65733802 -0.12194911 46 41
4.0351048 -0.78707403 -0.28424454 40 23
3.9443977 -1.0133028 -0.43777347 17 12
4.053174 -0.79132068 -0.22815426 43 27
3.9401166 -1.0129368 -0.38043547 37 16
4.0606747 -0.79351562 -0.1711843 68 34
4.1244254 -0.68215513 -0.064384058 35 49
4.0152993 -0.78686178 -0.39694303 38 15
4.025104 -0.7895059 -0.34069654 40 19
4.0366349 -0.65686518 -0.46186969 49 11
4.1027522 -0.66976702 -0.17921127 44 33
4.1097589 -0.67090434 -0.12180167 53 41
4.0274401 -0.80018556 -0.28389663 42 23
4.0503874 -0.80546409 -0.22815426 47 27
4.0125284 -0.80087298 -0.39694303 46 15
4.0223236 -0.80355126 -0.34069654 46 19
4.0294156 -0.6701411 -0.46130365 48 11
4.0954618 -0.6832667 -0.17899404 47 33
4.1073923 -0.68524605 -0.12180167 52 41
4.0295115 -0.81522495 -0.28424454 46 23
4.0524445 -0.82058525 -0.22843249 46 27
4.0097084 -0.81487441 -0.39694303 51 15
4.0194941 -0.8175869 -0.34069654 50 19
4.0270519 -0.68420231 -0.46130365 43 11
4.0930514 -0.69755834 -0.17899404 39 33
4.1000476 -0.69874412 -0.1216542 52 41
4.0266414 -0.82928562 -0.28424454 44 23
4.0446653 -0.83372122 -0.22815426 97 27
4.0019655 -0.82786113 -0.39645597 51 15
4.0117354 -0.83060551 -0.34027901 51 19
4.0197434 -0.69741046 -0.46073762 46 11
4.0856695 -0.71098948 -0.17877682 32 33
4.0975838 -0.71305168 -0.1216542 47 41
4.0188398 -0.84231615 -0.28389663 41 23
4.0515037 -0.84987813 -0.22871074 96 27
3.9990513 -0.84182549 -0.39645597 47 15
4.0088115 -0.84460402 -0.34027901 47 19
4.0221772 -0.71229953 -0.46130365 45 11
4.0831628 -0.72524679 -0.17877682 26 33
4.090148 -0.72648102 -0.12150674 68 41
4.0158749 -0.8563394 -0.28389663 39 23
3.9960887 -0.85577971 -0.39645597 40 15
4.0058393 -0.85859227 -0.34027901 46 19
4.0196662 -0.72633523 -0.46130365 43 11
4.0806065 -0.73949528 -0.17877682 27 33
4.0079856 -0.8692981 -0.28354871 42 23
3.9930768 -0.86972338 -0.39645597 30 15
3.9979489 -0.871512 -0.33986148 30 19
4.0122199 -0.73946613 -0.46073762 32 11
4.0730877 -0.75283134 -0.1785596 26 33
4.0097985 -0.88435441 -0.28389663 43 23
3.9900169 -0.88365656 -0.39645597 33 15
3.9948821 -0.88546205 -0.33986148 31 19
4.0096145 -0.75346684 -0.46073762 34 11
4.070435 -0.76704454 -0.1785596 30 33
3.9969516 -0.89616966 -0.28320077 98 23
3.9820528 -0.89648926 -0.39596897 35 15
3.9917669 -0.89940149 -0.33986148 35 19
4.0069599 -0.76745844 -0.46073762 49 11
4.0628262 -0.78031063 -0.17834237 97 33
3.9788992 -0.91038376 -0.39596897 40 15
3.9934607 -0.91443878 -0.34027901 44 19
4.0042567 -0.78144068 -0.46073762 45 11
3.9805446 -0.92539072 -0.39645597 51 15
3.9853909 -0.92724711 -0.33986148 49 19
4.0015044 -0.79541337 -0.46073762 50 11
3.9724467 -0.93813938 -0.39596897 62 15
3.9821301 -0.94115305 -0.33986148 43 19
3.9938335 -0.80839533 -0.46017164 58 11
3.9691477 -0.95200002 -0.39596897 60 15
3.9836659 -0.95620733 -0.34027901 96 19
3.9909875 -0.82233149 -0.46017164 52 11
3.9609649 -0.96467477 -0.39548191 54 15
3.9880927 -0.83625764 -0.46017164 50 11
3.9527414 -0.97730392 -0.39499485 52 15
3.9851491 -0.85017359 -0.46017164 50 11
3.949306 -0.9910956 -0.39499485 39 15
3.9821572 -0.86407918 -0.46017164 39 11
3.940999 -1.0036503 -0.3945078 48 15
3.9742646 -0.8769083 -0.4596056 38 11
3.9374716 -1.0174009 -0.3945078 48 15
3.9711797 -0.8907758 -0.4596056 38 11
3.9632013 -0.90353251 -0.45903957 43 11
3.9648643 -0.91847789 -0.4596056 54 11
3.9616339 -0.93231231 -0.4596056 56 11
3.9535222 -0.94498473 -0.45903957 54 11
3.9550288 -0.95994675 -0.4596056 97 11
4.1779685 -0.07793197 -0.24539898 50 26
4.1776714 -0.092515334 -0.24539898 48 26
4.1585388 -0.10659912 -0.30212072 43 22
4.1823115 -0.10722994 -0.24569464 48 26
4.1581411 -0.12111448 -0.30212072 43 22
4.1769238 -0.12167849 -0.24539898 49 26
4.2148714 -0.12355428 -0.18911502 48 32
4.1527095 -0.1354613 -0.30175543 55 22
4.1764731 -0.13625793 -0.24539898 48 26
4.2044301 -0.13792974 -0.18866311 51 32
4.1522117 -0.14995615 -0.30175543 50 22
4.1759725 -0.15083572 -0.24539898 47 26
4.2089143 -0.15279074 -0.18888907 43 32
4.1222572 -0.16253722 -0.35634741 40 18
4.1516628 -0.16444914 -0.30175543 49 22
4.1804066 -0.16561367 -0.24569464 43 26
4.2033644 -0.1672786 -0.18866311 43 32
4.1316175 -0.17736188 -0.35721546 25 18
4.151063 -0.17894015 -0.30175543 42 22
4.1748171 -0.17998558 -0.24539898 29 26
4.1977649 -0.18172957 -0.18843719 37 32
4.1259985 -0.19154735 -0.35678145 17 18
4.1454325 -0.19319232 -0.30139011 38 22
4.1741638 -0.19455731 -0.24539898 22 26
4.1971049 -0.1963814 -0.18843719 17 32
4.2192607 -0.19817591 -0.13088073 36 40
4.1302786 -0.20620143 -0.35721546 23 18
4.1447325 -0.20766141 -0.30139011 25 22
4.1734591 -0.20912668 -0.24539898 17 26
4.1963944 -0.21103083 -0.18843719 20 32
4.2185431 -0.21290268 -0.13088073 47 40
4.1191535 -0.21933256 -0.4146283 53 14
4.1295338 -0.22061756 -0.35721546 20 18
4.1439829 -0.22212796 -0.30139011 28 22
4.1727037 -0.22369349 -0.24539898 23 26
4.1956315 -0.22567768 -0.18843719 23 32
4.2127843 -0.22735308 -0.13072455 49 40
4.1084304 -0.23313704 -0.41361943 47 14
4.1337118 -0.23531859 -0.35764951 23 18
4.14816 -0.2368806 -0.30175543 33 22
4.1718974 -0.23825759 -0.24539898 30 26
4.1948185 -0.24032182 -0.18843719 25 32
4.2119646 -0.24205706 -0.13072455 52 40
4.2383337 -0.24359596 -0.072740547 52 48
4.1997495 -0.1197646 -0.19570749 12 31
4.1125574 -0.24778043 -0.41412386 54 14
4.132865 -0.2497465 -0.35764951 30 18
4.1423311 -0.25105277 -0.30139011 41 22
4.1710405 -0.25281876 -0.24539898 36 26
4.1989393 -0.25527054 -0.18866311 32 32
4.2110944 -0.25675806 -0.13072455 50 40
4.2374578 -0.258389 -0.072740547 42 48
4.199306 -0.13442373 -0.19570749 52 31
4.1067028 -0.2618134 -0.41361943 45 14
4.126997 -0.26384905 -0.35721546 35 18
4.1414294 -0.26551065 -0.30139011 49 22
4.1701326 -0.26737687 -0.24539898 46 26
4.1930385 -0.26960108 -0.18843719 39 32
4.2101727 -0.27145597 -0.13072455 50 40
4.2315416 -0.27285284 -0.072654158 43 48
4.193819 -0.14890081 -0.19547282 46 31
4.1057639 -0.27614686 -0.41361943 47 14
4.1260509 -0.27825338 -0.35721546 45 18
4.1404767 -0.27996531 -0.30139011 46 22
4.1641936 -0.28159046 -0.24510331 43 26
4.187089 -0.28389353 -0.18821123 45 32
4.2042131 -0.28580716 -0.13056836 49 40
4.2255754 -0.28727847 -0.072567761 42 48
4.193274 -0.16353905 -0.19547282 43 31
4.0998135 -0.29012132 -0.41311499 47 14
4.1200867 -0.29229727 -0.35678145 41 18
4.1394744 -0.29441661 -0.30139011 45 22
4.1631851 -0.29612455 -0.24510331 42 26
4.1860723 -0.29850745 -0.18821123 42 32
4.2031898 -0.30048087 -0.13056836 40 40
4.2295337 -0.30238768 -0.072654158 39 48
4.1976676 -0.17839059 -0.19570749 40 31
4.1824698 -0.064094923 -0.26017141 43 25
4.0987759 -0.30443054 -0.41311499 41 14
4.1190414 -0.30667728 -0.35678145 30 18
4.1334491 -0.30848861 -0.30102476 43 22
4.1621261 -0.31065494 -0.24510331 26 26
4.1850047 -0.31311777 -0.18821123 39 32
4.2021155 -0.31515092 -0.13056836 34 40
4.2284522 -0.31714967 -0.072654158 20 48
4.2439556 -0.31907123 -0.013994616 39 56
4.19203 -0.19280942 -0.19547282 17 31
4.2093267 -0.19361602 -0.13786007 52 39
4.1722422 -0.078502476 -0.25954527 58 25
4.1026468 -0.3191264 -0.41361943 31 14
4.1179457 -0.32105353 -0.35678145 17 18
4.1323471 -0.32291517 -0.30102476 40 22
4.1560407 -0.32478821 -0.24480766 24 26
4.1789074 -0.32732973 -0.18798529 20 32
4.1960077 -0.32942152 -0.13041218 42 40
4.2173519 -0.33111635 -0.072481371 17 48
4.242816 -0.33388343 -0.013994616 42 56
4.1863437 -0.20719108 -0.19523816 17 31
4.2136164 -0.20855834 -0.13802499 54 39
4.1769314 -0.093179055 -0.25985834 44 25
4.0965505 -0.33303776 -0.41311499 25 14
4.1217637 -0.33583489 -0.35721546 20 18
4.1361647 -0.33774814 -0.30139011 25 22
4.154882 -0.33929354 -0.24480766 17 26
4.172761 -0.34150296 -0.18775934 27 32
4.1948323 -0.34406629 -0.13041218 38 40
4.2161703 -0.34583563 -0.072481371 20 48
4.2366424 -0.3482776 -0.013978034 43 56
4.1905818 -0.22207037 -0.19547282 20 31
4.2078724 -0.22299771 -0.13786007 48 39
4.1765809 -0.1077587 -0.25985834 44 25
4.0904059 -0.34691042 -0.41261059 36 14
4.1156044 -0.34979418 -0.35678145 20 18
4.129992 -0.3517563 -0.30102476 23 22
4.1536722 -0.35379469 -0.24480766 23 26
4.1715431 -0.35606652 -0.18775934 20 32
4.1886277 -0.35827664 -0.130256 39 40
4.2149377 -0.3605507 -0.072481371 17 48
4.2354012 -0.36306411 -0.013978034 34 56
4.2401667 -0.36347687 0.044927415 12 64
4.1897812 -0.23669687 -0.19547282 25 31
4.2070684 -0.23768456 -0.13786007 45 39
4.2280378 -0.24776745 -0.079896934 77 47
4.1472549 -0.12075412 -0.31574875 53 21
4.1711917 -0.122189 -0.25954527 44 25
4.0891705 -0.36118647 -0.41261059 40 14
4.1943779 -0.12287716 -0.20273381 53 30
4.1143579 -0.36415821 -0.35678145 23 18
4.1287389 -0.36617053 -0.30102476 31 22
4.1524115 -0.36829159 -0.24480766 29 26
4.1752501 -0.37107241 -0.18798529 25 32
4.192328 -0.37334314 -0.13041218 31 40
4.2086744 -0.37481356 -0.072394989 23 48
4.234108 -0.37784621 -0.013978034 42 56
4.2388725 -0.3782756 0.044927415 42 64
4.1889296 -0.25132048 -0.19547282 30 31
4.2112012 -0.252671 -0.13802499 45 39
4.2321367 -0.26283756 -0.079992056 48 47
4.1517906 -0.13539442 -0.31613147 54 21
4.1707392 -0.13674842 -0.25954527 49 25
4.0878844 -0.37545815 -0.41261059 49 14
4.193923 -0.13751751 -0.20273381 47 30
4.1130619 -0.37851778 -0.35678145 28 18
4.1274352 -0.38058031 -0.30102476 38 22
4.146131 -0.38232121 -0.24451199 34 26
4.1739297 -0.3856445 -0.18798529 30 32
4.1860242 -0.38750979 -0.130256 42 40
4.2073407 -0.38950229 -0.072394989 28 48
4.2277856 -0.39215755 -0.013961455 43 56
4.2375259 -0.39306974 0.044927415 43 64
4.1880264 -0.26594105 -0.19547282 35 31
4.2053065 -0.26704943 -0.13786007 45 39
4.2262053 -0.27727845 -0.079896934 52 47
4.1463108 -0.14970425 -0.31574875 41 21
4.1702366 -0.15130618 -0.25954527 43 25
4.0865493 -0.38972527 -0.41261059 49 14
4.1884274 -0.1519732 -0.20249043 43 30
4.1117153 -0.39287272 -0.35678145 32 18
4.1211185 -0.39450571 -0.30065945 47 22
4.1447716 -0.39679158 -0.24451199 44 26
4.1675858 -0.3997305 -0.18775934 36 32
4.1796718 -0.4016369 -0.13009982 43 40
4.2059555 -0.40418628 -0.072394989 29 48
4.2214136 -0.40642932 -0.013944873 43 56
4.2311516 -0.40737554 0.04487418 42 64
4.1870728 -0.28055838 -0.19547282 46 31
4.2043486 -0.28172705 -0.13786007 45 39
4.2252111 -0.29202896 -0.079896934 40 47
4.1457624 -0.16417666 -0.31574875 43 21
4.1746688 -0.16606237 -0.25985834 43 25
4.0851636 -0.40398759 -0.41261059 46 14
4.1928611 -0.16679303 -0.20273381 40 30
4.1103187 -0.4072229 -0.35678145 41 18
4.1197162 -0.4088887 -0.30065945 43 22
4.1433611 -0.41125709 -0.24451199 43 26
4.1661649 -0.41427565 -0.18775934 46 32
4.1782446 -0.41622424 -0.13009982 45 40
4.1995449 -0.4183653 -0.072308592 41 48
4.2199697 -0.42116231 -0.013944873 43 56
4.2247305 -0.42164168 0.044820953 42 64
4.1810865 -0.29481781 -0.19523816 43 31
4.238471 -0.42451969 0.10396313 20 70
4.2033401 -0.29640126 -0.13786007 45 39
4.0767598 -0.2881096 -0.48662397 42 10
4.2241664 -0.30677596 -0.079896934 30 47
4.1501451 -0.17886364 -0.31613147 36 21
4.2398305 -0.30792353 -0.021334531 42 55
4.1740642 -0.18063368 -0.25985834 35 25
4.0837288 -0.41824499 -0.41261059 45 14
4.187264 -0.18121001 -0.20249043 33 30
4.1088724 -0.42156813 -0.35678145 42 18
4.1996369 -0.18248458 -0.14480412 52 38
4.1182637 -0.42326668 -0.30065945 43 22
