# .PCD v0.7 - Point Cloud Data file format
VERSION 0.7
FIELDS x y z intensity ring
SIZE 4 4 4 4 2
TYPE F F F F U
COUNT 1 1 1 1 1
WIDTH 1220
HEIGHT 1
VIEWPOINT 0 0 0 1 0 0 0
POINTS 1220
DATA ascii
4.4351459 0.043767884 -0.30685884 36 23
4.360517 -0.21380179 -0.46958214 44 12
4.4539843 0.04318773 -0.24623965 38 27
4.3715782 -0.21510759 -0.40955529 35 16
4.4719863 0.042592522 -0.18515427 38 34
4.3867855 -0.2166215 -0.34970963 23 20
4.4891324 0.042766098 -0.12361427 39 42
4.5320325 0.17510664 -0.069898255 37 49
4.5525842 0.17512193 -0.007100631 39 57
4.4049959 0.039607689 -0.42762697 38 15
4.5522428 0.17510854 0.056009673 30 65
4.4254942 0.039032012 -0.36783534 41 19
4.4039302 0.18159932 -0.49809477 43 11
4.5003319 0.0515205 -0.061562542 97 50
4.4930158 0.18299212 -0.19398262 48 33
4.5102682 0.18370917 -0.13212384 50 41
4.430284 0.028251251 -0.30651093 42 23
4.3547797 -0.22876136 -0.46904299 33 12
4.4491167 0.027606182 -0.24596143 44 27
4.3658304 -0.23010455 -0.4090856 41 16
4.4671121 0.026948985 -0.18494576 41 34
4.3810258 -0.23167033 -0.3493095 29 20
4.4842563 0.027062694 -0.12347554 45 42
4.5326161 0.15928581 -0.069898255 49 49
4.5481706 0.15905052 -0.0070927762 44 57
4.405107 0.024231145 -0.42762697 45 15
4.5528259 0.15921718 0.056009673 100 65
4.4206219 0.023554351 -0.36741787 44 19
4.4045377 0.16622563 -0.49809477 49 11
4.4936271 0.16730745 -0.19398262 50 33
4.5108819 0.16796428 -0.13212384 51 41
4.430356 0.012786502 -0.30651093 44 23
4.3489919 -0.24368349 -0.46850386 40 12
4.4491863 0.012075698 -0.24596143 39 27
4.3600302 -0.24506398 -0.40861592 49 16
4.4621835 0.011339995 -0.18473725 45 34
4.3752141 -0.24668162 -0.34890941 36 20
4.4843235 0.011409553 -0.12347554 47 42
4.5231504 0.14313853 -0.069742925 48 49
4.5486984 0.14317346 -0.0070927762 46 57
4.4051647 0.0088543035 -0.42762697 49 15
4.4206772 0.0081233587 -0.36741787 49 19
4.400126 0.15067567 -0.49752873 51 11
4.489192 0.15144819 -0.19376542 53 33
4.5064459 0.15204468 -0.13197637 55 41
4.4203982 -0.002679022 -0.30581513 40 23
4.3580394 -0.25945243 -0.46958214 50 12
4.4442091 -0.0034546829 -0.24568318 38 27
4.359148 -0.26028183 -0.40861592 51 16
4.4621959 -0.0042366222 -0.18473725 39 34
4.379302 -0.26224977 -0.3493095 43 20
4.4793377 -0.0042426055 -0.1233368 36 42
4.5186257 0.12720409 -0.069665268 41 49
4.5441728 0.1271507 -0.0070849215 46 57
4.4051695 -0.006523259 -0.42762697 45 15
4.4107132 -0.0072979126 -0.36658281 38 19
4.3956594 0.13515854 -0.4969627 44 11
4.4847002 0.13562189 -0.19354817 37 33
4.5069489 0.13631332 -0.13197637 48 41
4.420362 -0.018109074 -0.30581513 36 23
4.3422236 -0.27372688 -0.46796471 47 12
4.4341846 -0.018931249 -0.24512669 42 27
4.3532443 -0.27518308 -0.40814623 51 16
4.4571576 -0.019793384 -0.18452874 41 34
4.4792953 -0.019878386 -0.1233368 99 42
4.5140443 0.111303 -0.069587596 38 49
4.5445886 0.11128781 -0.0070849215 44 57
4.4001431 -0.021878416 -0.42713991 38 15
4.4106603 -0.022694129 -0.36658281 39 19
4.3961048 0.11981399 -0.4969627 37 11
4.4801526 0.11982879 -0.19333094 43 33
4.5024014 0.12044249 -0.1318289 32 41
4.4152837 -0.03350408 -0.30546719 33 23
4.351162 -0.28954127 -0.46904299 46 12
4.4340916 -0.034409329 -0.24512669 29 27
4.3522573 -0.29037708 -0.40814623 51 16
4.4520664 -0.035315033 -0.18432026 37 34
4.509407 0.095435433 -0.069509931 27 49
4.5399504 0.095314488 -0.0070770672 95 57
4.4000401 -0.037237652 -0.42713991 43 15
4.4105544 -0.038090073 -0.36658281 38 19
4.3915291 0.10434574 -0.49639669 40 11
4.4705563 0.10394882 -0.1928965 29 33
4.4878054 0.10436435 -0.13138653 33 41
4.410152 -0.048863854 -0.30511928 29 23
4.4289532 -0.049833842 -0.24484847 26 27
4.3462515 -0.30521938 -0.40767655 49 16
4.4519162 -0.050855428 -0.18432026 27 34
4.504714 0.079601586 -0.069432266 22 49
4.394908 -0.052539982 -0.42665291 25 15
4.4054127 -0.053428151 -0.36616528 30 19
4.3918672 0.089015804 -0.49639669 33 11
4.4708915 0.088343017 -0.1928965 30 33
4.4931388 0.088801265 -0.131534 33 41
4.4099545 -0.06425786 -0.30511928 28 23
4.4287524 -0.065293469 -0.24484847 36 27
4.3451605 -0.32038882 -0.40767655 42 16
4.4467163 -0.066323712 -0.18411174 29 34
4.5049644 0.063876711 -0.069432266 23 49
4.3946977 -0.067880757 -0.42665291 30 15
4.4051995 -0.068805583 -0.36616528 32 19
4.3921504 0.073684789 -0.49639669 29 11
4.4711728 0.072736159 -0.1928965 29 33
4.4884248 0.073031269 -0.13138653 34 41
4.4097033 -0.07965108 -0.30511928 36 23
4.4284973 -0.080752298 -0.24484847 38 27
4.4464579 -0.081845239 -0.18411174 87 34
4.4951625 0.048035894 -0.069276944 28 49
4.3894587 -0.083129495 -0.42616585 34 15
4.399951 -0.084090009 -0.36574778 42 19
4.3923812 0.058352869 -0.49639669 39 11
4.4713998 0.057128407 -0.1928965 43 33
4.4886522 0.057363298 -0.13138653 43 41
4.4093981 -0.095043339 -0.30511928 40 23
4.4281888 -0.096210152 -0.24484847 42 27
4.4953022 0.032344554 -0.069276944 96 49
4.3891416 -0.09845107 -0.42616585 40 15
4.3996305 -0.099448189 -0.36574778 43 19
4.3925581 0.043020245 -0.49639669 47 11
4.4665766 0.041469395 -0.19267927 48 33
4.4888248 0.041694626 -0.13138653 50 41
4.4040542 -0.11031257 -0.30477139 44 23
4.4278255 -0.11166683 -0.24484847 47 27
4.3887711 -0.11377144 -0.42616585 50 15
4.3992562 -0.11480515 -0.36574778 49 19
4.3926816 0.027687093 -0.49639669 53 11
4.4666944 0.025877884 -0.19267927 50 33
4.4839454 0.0259923 -0.13123907 58 41
4.3986559 -0.12554564 -0.30442348 48 23
4.4224186 -0.12698187 -0.24457024 99 27
4.3833728 -0.12894711 -0.42567879 50 15
4.3938484 -0.1300164 -0.36533025 51 19
4.3877845 0.012335399 -0.49583071 52 11
4.4567666 0.010254665 -0.19224481 42 33
4.489007 0.010355956 -0.13138653 57 41
4.3981905 -0.14089905 -0.30442348 42 23
4.4269381 -0.14257592 -0.24484847 99 27
4.3779225 -0.14408652 -0.42519173 42 15
4.3883872 -0.14519127 -0.36491272 37 19
4.3828325 -0.0029817694 -0.49526468 38 11
4.4567752 -0.0053030369 -0.19224481 42 33
4.4790196 -0.0053108018 -0.13109161 53 41
4.3976717 -0.15625073 -0.30442348 37 23
4.3773928 -0.15936744 -0.42519173 37 15
4.3878541 -0.16050872 -0.36491272 36 19
4.3827953 -0.018281301 -0.49526468 41 11
4.451735 -0.020840874 -0.1920276 31 33
4.3871312 -0.17121759 -0.30372763 39 23
4.3718381 -0.17445105 -0.42470473 41 15
4.382288 -0.17562772 -0.36449519 37 19
4.3727689 -0.033512369 -0.49413261 41 11
4.4516349 -0.036380202 -0.1920276 31 33
4.3914909 -0.18673937 -0.30407554 38 23
4.36623 -0.18949783 -0.42421767 23 15
4.381649 -0.19092369 -0.36449519 26 19
4.377594 -0.048827134 -0.49469864 41 11
4.4414907 -0.05181098 -0.19159314 28 33
4.380847 -0.20161487 -0.30337974 58 23
4.3655419 -0.20473765 -0.42421767 29 15
4.3710012 -0.20575488 -0.36366019 28 19
4.3773961 -0.064107493 -0.49469864 42 11
4.4412827 -0.067314357 -0.19159314 31 33
4.3648009 -0.21997498 -0.42421767 35 15
4.3851852 -0.22175708 -0.36491272 38 19
4.3771462 -0.079387069 -0.49469864 42 11
4.3590374 -0.23494488 -0.42373061 41 15
4.3794093 -0.2367969 -0.36449519 40 19
4.3718753 -0.094562501 -0.49413261 48 11
4.3581905 -0.25015932 -0.42373061 49 15
4.3735819 -0.25179914 -0.36407772 36 19
4.3665524 -0.1097021 -0.49356663 55 11
4.3523235 -0.26507127 -0.42324355 51 15
4.3776493 -0.26736492 -0.36449519 98 19
4.3661427 -0.12494355 -0.49356663 47 11
4.3464055 -0.27994528 -0.42275649 50 15
4.3607144 -0.1400283 -0.4930006 38 11
4.3454022 -0.29511535 -0.42275649 49 15
4.360199 -0.15524918 -0.4930006 40 11
4.3393822 -0.30993041 -0.42226949 27 15
4.3546662 -0.17027831 -0.49243459 38 11
4.3382735 -0.32507583 -0.42226949 98 15
4.3540454 -0.1854779 -0.49243459 39 11
4.3533711 -0.2006752 -0.49243459 43 11
4.3476825 -0.21562831 -0.49186856 46 11
4.3469033 -0.23080322 -0.49186856 58 11
4.3411107 -0.24569888 -0.49130252 97 11
4.4974275 0.64226264 -0.26698226 48 26
4.4848099 0.62450695 -0.26609528 51 26
4.501802 0.61084932 -0.26698226 47 26
4.4890609 0.59318209 -0.26609528 47 26
4.4770908 0.57571864 -0.32805854 51 22
4.4911036 0.57750875 -0.26609528 46 26
4.5192294 0.58030003 -0.2044792 60 32
4.4691763 0.55885786 -0.32732791 46 22
4.4930925 0.56182832 -0.26609528 46 26
4.511313 0.56329179 -0.20402731 46 32
4.4760504 0.54385149 -0.32769325 43 22
4.4950261 0.54614109 -0.26609528 43 26
4.5182109 0.54813844 -0.20425326 41 32
4.4729691 0.5276438 -0.32732791 37 22
4.4969053 0.53044719 -0.26609528 25 26
4.5151358 0.53178346 -0.20402731 37 32
4.4549403 0.51056081 -0.38759831 33 18
4.4648738 0.51090145 -0.32659727 20 22
4.4888105 0.5136202 -0.26550394 26 26
4.5169649 0.51601946 -0.20402731 17 32
4.5343461 0.51718897 -0.14150111 35 40
4.4517446 0.49446139 -0.38716429 20 18
4.4616737 0.49476758 -0.32623193 20 22
4.4856148 0.49740228 -0.2652083 23 26
4.5137734 0.49970362 -0.20380136 17 32
4.5361238 0.50135797 -0.14150111 43 40
4.4534431 0.47891891 -0.38716429 29 18
4.4683323 0.4797186 -0.32659727 23 22
4.4873238 0.48174152 -0.2652083 25 26
4.5154901 0.48394459 -0.20380136 17 32
4.5378461 0.4855209 -0.14150111 50 40
4.4441729 0.46302849 -0.44943282 55 14
4.4501328 0.46285936 -0.38673025 35 18
4.4699793 0.46411827 -0.32659727 31 22
4.4889784 0.46607491 -0.2652083 31 26
4.522121 0.46869048 -0.20402731 25 32
4.5345421 0.46916771 -0.14134495 42 40
4.4358621 0.44652447 -0.44842398 42 14
4.4517217 0.4473227 -0.38673025 46 18
4.4715724 0.44851232 -0.32659727 36 22
4.4955444 0.45089659 -0.26550394 45 26
4.5237288 0.4529025 -0.20402731 32 32
4.5361519 0.45333633 -0.14134495 43 40
4.5625515 0.45595276 -0.078615077 30 48
4.5184894 0.58393848 -0.21236844 41 31
4.4373937 0.43103772 -0.44842398 47 14
4.4532557 0.43178055 -0.38673025 49 18
4.4731107 0.43290091 -0.32659727 53 22
4.4921227 0.43472484 -0.2652083 46 26
4.5203104 0.43663281 -0.20380136 38 32
4.5377069 0.43749943 -0.14134495 45 40
4.5541625 0.43907234 -0.078442298 43 48
4.5155444 0.56754249 -0.21213377 43 31
4.433918 0.41508618 -0.44791961 54 14
4.4497762 0.4157739 -0.38629618 44 18
4.4696283 0.41682529 -0.32623193 43 22
4.4936123 0.41904175 -0.2652083 43 26
4.5168338 0.42039257 -0.20357543 46 32
4.5392065 0.42165723 -0.14134495 43 40
4.5606456 0.42363098 -0.078528695 42 48
4.5174975 0.55177683 -0.21213377 41 31
4.4254308 0.39872196 -0.44691074 50 14
4.446239 0.39979681 -0.38586214 42 18
4.4660897 0.40077931 -0.32586664 40 22
4.4900765 0.40291163 -0.26491264 32 26
4.5132976 0.4041819 -0.20334949 31 32
4.5356727 0.40536907 -0.14118876 43 40
4.557117 0.40726784 -0.078442298 40 48
4.5144358 0.53541911 -0.2118991 31 31
4.5367889 0.53805685 -0.14956829 28 39
4.4218392 0.38284701 -0.44640633 39 14
4.447607 0.38427413 -0.38586214 37 18
4.4674616 0.3851873 -0.32586664 33 22
4.4914556 0.38723588 -0.26491264 27 26
4.5097041 0.38800105 -0.20312352 29 32
4.5271006 0.38868737 -0.14087638 42 40
4.5485477 0.39051095 -0.078269519 25 48
4.5791574 0.39230859 -0.015122145 46 56
4.5113153 0.51908952 -0.21166444 17 31
4.5386395 0.52221721 -0.14956829 43 39
4.4231486 0.36740959 -0.44640633 23 14
4.4489217 0.36874673 -0.38586214 17 18
4.4687786 0.36959058 -0.32586664 17 22
4.4878049 0.37114814 -0.26461697 25 26
4.5110312 0.3722569 -0.20312352 28 32
4.52843 0.37288249 -0.14087638 34 40
4.5498829 0.3746312 -0.078269519 17 48
4.5755153 0.3759166 -0.015105563 43 56
4.5130997 0.50333893 -0.21166444 20 31
4.5354681 0.50582027 -0.14940338 50 39
4.4840965 0.62384415 -0.2817741 54 25
4.4244041 0.35196769 -0.44640633 25 14
4.4452157 0.35282493 -0.38542813 23 18
4.4650702 0.35359988 -0.32550129 20 22
4.484097 0.35509062 -0.2643213 20 26
4.5073237 0.35611889 -0.20289758 29 32
4.5247216 0.35668445 -0.14072022 42 40
4.5511632 0.35874686 -0.078269519 17 48
4.5767999 0.35994279 -0.015105563 42 56
4.5148292 0.48758224 -0.21166444 24 31
4.5372057 0.48998544 -0.14940338 55 39
4.4911914 0.60885656 -0.28208721 55 25
4.4256053 0.33652148 -0.44640633 34 14
4.4513869 0.33767867 -0.38586214 28 18
4.4662776 0.33801171 -0.32550129 25 22
4.4853091 0.33943602 -0.2643213 26 26
4.5085392 0.3403832 -0.20289758 20 32
4.5259395 0.34088802 -0.14072022 42 40
4.5523877 0.34285814 -0.078269519 29 48
4.5730419 0.34359404 -0.015088982 42 56
4.5115371 0.47130361 -0.21142979 23 31
4.5339193 0.47362843 -0.1492385 50 39
4.5564284 0.46632206 -0.086459905 29 47
4.4833941 0.59187293 -0.281461 48 25
4.4217916 0.32071555 -0.44590193 40 14
4.5066624 0.59493625 -0.21977027 50 30
4.4475703 0.32178313 -0.38542813 36 18
4.4674301 0.32241946 -0.32550129 34 22
4.4864664 0.32377735 -0.2643213 37 26
4.5096998 0.3246434 -0.20289758 29 32
4.5271015 0.32508749 -0.14072022 38 40
4.5535569 0.32696524 -0.078269519 25 48
4.5692263 0.3272759 -0.015072402 42 56
4.5789685 0.32796571 0.048493925 25 64
4.5181231 0.45605117 -0.21166444 30 31
4.5355444 0.45779923 -0.1492385 46 39
4.5580282 0.45041436 -0.086459905 46 47
4.4903831 0.57685345 -0.2817741 48 25
4.422884 0.30527863 -0.44590193 50 14
4.5087118 0.57920146 -0.21977027 42 30
4.448667 0.30625623 -0.38542813 41 18
4.463553 0.30648577 -0.32513598 42 22
4.4825897 0.30777693 -0.26402563 47 26
4.5108056 0.30889964 -0.20289758 34 32
4.5232224 0.30894655 -0.14056402 44 40
4.5496831 0.31073189 -0.078183129 30 48
4.5703411 0.31132436 -0.015072402 42 56
4.5701089 0.31130871 0.048387464 46 64
4.5147171 0.43979594 -0.21142979 36 31
4.5321403 0.44148281 -0.14907359 46 39
4.5545959 0.43402979 -0.086364791 49 47
4.4631977 0.55833322 -0.34253955 50 21
4.4874167 0.5605588 -0.281461 48 25
4.423923 0.28983802 -0.44590193 46 14
4.5057502 0.56284231 -0.21952687 43 30
4.4447384 0.29040506 -0.38499409 47 18
4.4596195 0.29058316 -0.32477066 48 22
4.4786563 0.29180756 -0.26372999 43 26
4.5068717 0.29283237 -0.20267166 37 32
4.5242729 0.29315564 -0.14056402 42 40
4.5457501 0.29452944 -0.07809674 37 48
4.5713997 0.29536897 -0.015072402 42 56
4.5761561 0.29567242 0.048440695 42 64
4.5162249 0.42403394 -0.21142979 47 31
4.5336537 0.42565998 -0.14907359 46 39
4.5560832 0.41812861 -0.086364791 46 47
4.4552212 0.5415507 -0.34177408 39 21
4.489346 0.54489136 -0.281461 39 25
4.4249077 0.27439392 -0.44590193 48 14
4.5076876 0.54711086 -0.21952687 39 30
4.440752 0.27458501 -0.38456005 43 18
4.4606066 0.2750144 -0.32477066 42 22
4.4796476 0.27617234 -0.26372999 42 26
4.4729662 0.27498242 -0.20109004 38 32
4.5202804 0.27705956 -0.14040785 43 40
4.5417609 0.27835831 -0.07801035 43 48
4.5674119 0.27910912 -0.01505582 44 56
4.5721707 0.279396 0.048387464 40 64
4.5127025 0.40782017 -0.21119513 38 31
4.5351119 0.409832 -0.14907359 46 39
4.5525351 0.40178579 -0.086269669 37 47
4.4669867 0.52716082 -0.34253955 25 21
4.491221 0.5292173 -0.281461 31 25
4.4208722 0.25866008 -0.44539753 45 14
4.5046101 0.53079015 -0.21928352 17 30
4.4416838 0.25908223 -0.38456005 40 18
4.5321226 0.53322011 -0.15730518 46 38
4.4615388 0.25944233 -0.32477066 40 22
4.4805837 0.26053378 -0.26372999 26 26
4.4788861 0.25965214 -0.20131598 38 32
4.5162301 0.26099497 -0.14025165 36 40
4.5427051 0.26250294 -0.07801035 35 48
4.5683584 0.26316419 -0.01505582 42 56
4.5631347 0.26286757 0.048280999 25 64
4.5091224 0.39163622 -0.21096046 17 31
4.5820742 0.26233837 0.11208332 23 70
4.5315361 0.39356956 -0.14890867 43 39
4.3931293 0.38085839 -0.52538687 38 10
4.5489283 0.38547289 -0.086174555 17 47
4.4638467 0.51099968 -0.3421568 33 21
4.5745988 0.38763306 -0.023055466 43 55
4.4880829 0.51297188 -0.28114793 25 25
4.4167805 0.24295774 -0.44489309 36 14
4.5064354 0.51506287 -0.21928352 17 30
4.4425607 0.24357629 -0.38456005 25 18
4.5289917 0.51683205 -0.15713157 39 38
4.4574385 0.24359915 -0.32440534 25 22
4.4764819 0.24462384 -0.26343432 31 26
4.4997158 0.24508633 -0.20221975 17 32
4.5121241 0.24496202 -0.14009549 36 40
4.4492168 0.50539726 -0.4034467 43 17
4.5336094 0.2461106 -0.077837572 28 48
4.5642562 0.24694999 -0.015039238 41 56
4.5640244 0.24693763 0.048280999 17 64
4.5104623 0.37589404 -0.21096046 17 31
4.567987 0.24554971 0.11171423 42 70
4.5279021 0.37733704 -0.14874376 41 39
4.3894854 0.36511275 -0.52479059 30 10
4.5502458 0.3695918 -0.086174555 17 47
4.4606481 0.49486694 -0.34177408 20 21
4.57094 0.37126046 -0.023030158 49 55
4.4848862 0.49675485 -0.28083485 42 25
4.4176016 0.22753881 -0.44489309 20 14
4.503242 0.49878132 -0.21904014 17 30
4.4384098 0.22781621 -0.38412598 20 18
4.5307674 0.50101978 -0.15713157 53 38
4.4532814 0.22778773 -0.32404003 17 22
4.4723244 0.22874573 -0.26313865 20 26
4.4905663 0.22887771 -0.20176786 20 32
4.5129514 0.22921027 -0.14009549 36 40
4.450954 0.48986351 -0.4034467 29 17
4.5394335 0.23053326 -0.077923954 20 48
4.5551033 0.23051907 -0.015006077 40 56
4.5648584 0.23100471 0.048280999 20 64
4.5117474 0.3601473 -0.21096046 23 31
4.5588312 0.22910935 0.11146815 40 70
4.5242105 0.36113471 -0.14857888 37 39
4.4006305 0.35057077 -0.52598327 33 10
4.5515084 0.35370618 -0.086174555 23 47
4.4673057 0.47982398 -0.3421568 23 21
4.5722084 0.3553026 -0.023030158 36 55
4.4915547 0.4816269 -0.28114793 27 25
4.4183693 0.21211712 -0.44489309 29 14
4.5049558 0.48305905 -0.21904014 20 30
4.439178 0.21232189 -0.38412598 25 18
4.5275202 0.48467126 -0.15695794 50 38
4.4540491 0.2122415 -0.32404003 25 22
4.4730954 0.21313302 -0.26313865 25 26
4.4913378 0.2132013 -0.20176786 20 32
4.5087318 0.21322381 -0.13993931 25 40
4.4476848 0.4737981 -0.40299439 40 17
4.5352173 0.21445431 -0.077837572 27 48
4.5558801 0.21461739 -0.015006077 31 56
4.5656371 0.21506898 0.048280999 17 64
4.5030165 0.34364203 -0.21049115 25 31
4.5645967 0.21342404 0.11159119 38 70
4.5254431 0.3453401 -0.14857888 35 39
4.5596786 0.48246869 -0.094494693 17 46
4.3968768 0.33483359 -0.52538687 46 10
4.50424 0.61033946 -0.22764073 55 29
4.5477304 0.33744934 -0.086079441 23 47
4.4689531 0.46422723 -0.3421568 35 21
4.5684347 0.33897343 -0.02300485 47 55
4.4932084 0.46594548 -0.28114793 32 25
4.4190831 0.19669285 -0.44489309 36 14
4.5066147 0.46733084 -0.21904014 23 30
4.4448681 0.19704138 -0.38456005 32 18
4.5291848 0.46886432 -0.15695794 54 38
4.4547629 0.19669266 -0.32404003 31 22
4.4738116 0.19751769 -0.26313865 33 26
4.4920545 0.1975223 -0.20176786 25 32
4.5094485 0.19748411 -0.13993931 34 40
4.4493117 0.45826989 -0.40299439 52 17
4.5359383 0.19862214 -0.077837572 25 48
4.5566015 0.19871309 -0.015006077 38 56
4.5613642 0.19891688 0.048227768 20 64
4.5041885 0.32792145 -0.21049115 29 31
4.521637 0.32918134 -0.14841397 41 39
4.5613351 0.46654952 -0.094494693 42 46
4.4029708 0.31984025 -0.52598327 30 10
4.5063429 0.59461302 -0.22764073 51 29
4.5488806 0.32157275 -0.086079441 28 47
4.4705462 0.44862488 -0.3421568 45 21
4.5695906 0.32302454 -0.02300485 47 55
4.4898424 0.44976288 -0.28083485 38 25
4.4197426 0.18126616 -0.44489309 49 14
4.5794992 0.32291603 0.040544335 46 63
4.5082188 0.45159701 -0.21904014 29 30
4.4405518 0.18132566 -0.38412598 39 18
4.5307937 0.45305163 -0.15695794 56 38
4.4504395 0.18094306 -0.32367468 37 22
4.4694862 0.18170141 -0.26284298 42 26
4.4927163 0.18184091 -0.20176786 32 32
4.4249835 0.44094908 -0.46281451 58 13
4.5101104 0.18174198 -0.13993931 43 40
4.4508839 0.44273612 -0.40299439 39 17
4.5316081 0.18259041 -0.077751182 30 48
4.5522709 0.18261006 -0.014989495 43 56
4.5720229 0.18338613 0.048334233 28 64
4.5053058 0.31219694 -0.21049115 32 31
4.5227585 0.31339592 -0.14841397 47 39
4.5529857 0.44964552 -0.094287015 43 46
4.394155 0.30379033 -0.52479059 56 10
4.5083909 0.5788793 -0.22764073 43 29
4.5499749 0.30569226 -0.086079441 31 47
4.472085 0.43301702 -0.3421568 49 21
4.5657005 0.30673951 -0.022979543 51 55
4.4913855 0.43408763 -0.28083485 45 25
4.4153771 0.165655 -0.44438866 46 14
4.570622 0.30626592 0.040455326 31 63
4.5097675 0.43585762 -0.21904014 31 30
4.4312024 0.16546082 -0.38325793 41 18
4.5273733 0.43675542 -0.15678431 56 38
4.4460607 0.16522603 -0.32330936 52 22
4.465106 0.16591772 -0.26254734 46 26
4.4883332 0.1659769 -0.20154193 39 32
4.4165959 0.42455226 -0.46177095 44 13
4.5057225 0.16581799 -0.13978311 43 40
4.4474449 0.42672309 -0.40254208 46 17
4.5272212 0.1665913 -0.077664785 34 48
4.5428863 0.16636084 -0.014956332 42 56
4.5626416 0.16706796 0.048227768 28 64
4.5013838 0.29614362 -0.21025649 41 31
4.5238247 0.29760662 -0.14841397 50 39
4.5545278 0.43374991 -0.094287015 43 46
4.4100499 0.28941628 -0.52657962 46 10
4.5054297 0.5625205 -0.22738864 39 29
4.5460258 0.28949326 -0.085984327 36 47
4.468605 0.41694254 -0.34177408 44 21
4.5667439 0.29080039 -0.022979543 48 55
4.4928732 0.41840714 -0.28083485 42 25
4.4109573 0.15007652 -0.44388428 45 14
4.576653 0.29062352 0.040499829 22 63
4.5062885 0.41965163 -0.21879674 39 30
4.4317527 0.14999203 -0.38325793 46 18
4.5288701 0.42094925 -0.15678431 48 38
4.44661 0.14970537 -0.32330936 44 22
4.4656577 0.15033059 -0.26254734 45 26
4.4888849 0.15030867 -0.20154193 45 32
4.4279542 0.4100464 -0.46281451 42 13
4.5012794 0.14992687 -0.13962694 45 40
4.4489079 0.41119602 -0.40254208 41 17
4.522779 0.15062506 -0.077578396 43 48
4.5484376 0.1506636 -0.014972913 43 56
4.5681949 0.15130177 0.048280999 33 64
4.4974051 0.28012156 -0.21002181 42 31
4.5248356 0.28181371 -0.14841397 46 39
4.5560141 0.41784903 -0.094287015 39 46
4.4060779 0.27371579 -0.52598327 41 10
4.5073657 0.54679018 -0.22738864 44 29
4.5249915 0.54892629 -0.16423495 46 37
4.5370274 0.27302814 -0.085794091 38 47
4.4650683 0.40089765 -0.34139135 32 21
4.5627398 0.27456027 -0.022954235 48 55
4.4893355 0.40227789 -0.28052178 38 25
4.4164262 0.13482608 -0.44438866 48 14
4.5676575 0.27405325 0.04041082 38 63
4.5027509 0.4034752 -0.21855336 38 30
4.4322495 0.13452142 -0.38325793 41 18
4.5303121 0.40513799 -0.15678431 43 38
4.4421215 0.1340367 -0.32294407 42 22
4.4661551 0.13474162 -0.26254734 42 26
4.4843898 0.13449307 -0.20131598 32 32
4.4194522 0.39370853 -0.46177095 39 13
4.5017753 0.13421357 -0.13962694 38 40
4.450316 0.39566392 -0.40254208 36 17
4.5232773 0.1348367 -0.077578396 39 48
4.5439377 0.13464169 -0.014956332 43 56
4.4883833 0.26384073 -0.20955248 30 31
4.5158143 0.26543677 -0.14808415 46 39
4.5474849 0.40106818 -0.094079331 36 46
4.4070067 0.25833404 -0.52598327 38 10
4.5732574 0.40333202 -0.031005301 40 54
4.5092463 0.53105319 -0.22738864 39 29
4.5318418 0.53371155 -0.1644164 27 37
4.5379524 0.2571893 -0.085794091 20 47
4.4664407 0.38530925 -0.34139135 41 21
4.5636702 0.25863168 -0.022954235 40 55
4.4907122 0.38660476 -0.28052178 32 25
4.4118972 0.11927883 -0.44388428 43 14
4.5635939 0.25782835 0.040366314 23 63
4.4991565 0.38732868 -0.21831001 17 30
4.4277129 0.11891964 -0.38282388 37 18
4.5217414 0.38846985 -0.15643707 41 38
4.4375768 0.11840119 -0.32257873 37 22
4.4616089 0.11902209 -0.26225168 29 26
4.4798379 0.11871067 -0.20109004 25 32
4.4207993 0.37827939 -0.46177095 40 13
4.4922247 0.11824396 -0.13931458 33 40
4.4467082 0.37970513 -0.40208977 34 17
4.5137253 0.11879196 -0.077405617 17 48
4.5493784 0.11890611 -0.014972913 43 56
4.4892769 0.24817173 -0.20955248 30 31
4.5117235 0.2493992 -0.14791925 39 39
4.5438766 0.38477197 -0.093975499 14 46
4.402925 0.24267894 -0.52538687 25 10
4.5696554 0.38694575 -0.030971264 42 54
4.5110726 0.51530975 -0.22738864 17 29
4.5237484 0.51675618 -0.16405347 41 37
4.5338306 0.24108484 -0.085698985 20 47
4.4677582 0.36971608 -0.34139135 32 21
4.5595522 0.24243735 -0.022928925 38 55
4.4870615 0.370518 -0.28020868 26 25
4.4073138 0.10376485 -0.44337988 32 14
4.564466 0.24189688 0.040366314 20 63
4.5004816 0.37162134 -0.21831001 23 30
4.423121 0.10335117 -0.38238981 20 18
4.5230699 0.37268367 -0.15643707 38 38
4.4329777 0.10279904 -0.32221341 20 22
4.4570069 0.10333595 -0.26195601 26 26
4.3723197 0.35877976 -0.54579014 54 9
4.4752316 0.10296167 -0.20086409 17 32
4.4270492 0.36325046 -0.46229273 30 13
4.49261 0.10256245 -0.13931458 36 40
4.4480066 0.36418092 -0.40208977 30 17
4.5091143 0.10292546 -0.077319227 17 48
4.5347691 0.10269787 -0.01492317 42 56
4.4951038 0.23275502 -0.20978715 20 31
4.512567 0.23364884 -0.14791925 38 39
4.5451918 0.36890855 -0.093975499 17 46
4.4037447 0.22730839 -0.52538687 21 10
4.5709782 0.37099233 -0.030971264 42 54
4.5078812 0.49901122 -0.22713655 27 29
4.5304918 0.50151145 -0.16423495 38 37
4.5346446 0.22525735 -0.085698985 23 47
4.4640512 0.35372639 -0.34100863 24 21
4.555377 0.22627495 -0.022903619 36 55
4.4833522 0.3544614 -0.2798956 24 25
4.407649 0.08837983 -0.44337988 23 14
4.5652828 0.22596245 0.040366314 23 63
4.4967723 0.3555176 -0.21806662 23 30
4.4234543 0.087910965 -0.38238981 23 18
4.5193615 0.35650176 -0.15626344 36 38
4.43331 0.087324433 -0.32221341 23 22
4.5433807 0.49250457 -0.10209639 17 45
4.4523501 0.08768338 -0.26166034 28 26
4.3784914 0.34390193 -0.54641247 58 9
4.4705701 0.087246314 -0.20063816 30 32
4.4233327 0.3474074 -0.46177095 23 13
4.4929404 0.086879693 -0.13931458 40 40
4.4442863 0.34826508 -0.40163752 24 17
4.5094457 0.087185085 -0.077319227 17 48
4.5450983 0.087051198 -0.014956332 39 56
4.4908996 0.21682487 -0.20955248 20 31
4.5083632 0.2176576 -0.14775436 33 39
4.546452 0.35304064 -0.093975499 17 46
4.4045115 0.21193507 -0.52538687 23 10
4.5672607 0.35464907 -0.030937234 40 54
4.5095954 0.48327276 -0.22713655 20 29
4.5272455 0.48516214 -0.16405347 37 37
4.4649401 0.60949242 -0.2961275 43 24
4.5034499 0.61315262 -0.23551053 8 28
4.5304093 0.20919946 -0.085603863 23 47
4.4702301 0.3385165 -0.34139135 23 21
4.5511446 0.21014467 -0.022878312 33 55
4.4845619 0.33880943 -0.2798956 28 25
4.4029565 0.072915569 -0.44287544 32 14
4.561049 0.20979844 0.040321805 23 63
4.4979858 0.33981878 -0.21806662 23 30
4.4237342 0.072469704 -0.38238981 30 18
4.5205784 0.34072405 -0.15626344 44 38
4.4385738 0.071925357 -0.32257873 29 22
4.5500441 0.47716296 -0.10220895 45 45
4.4576197 0.072217904 -0.26195601 30 26
4.3895602 0.32935485 -0.54765719 48 9
4.4758415 0.071716413 -0.20086409 20 32
4.4245186 0.33196497 -0.46177095 30 13
4.4882193 0.071120851 -0.13915838 53 40
4.4454751 0.33274952 -0.40163752 31 17
4.5097227 0.071443647 -0.077319227 20 48
4.48664 0.20092693 -0.20931783 28 31
4.5090957 0.20191915 -0.14775436 41 39
4.5426707 0.33680055 -0.093871653 23 46
4.4002652 0.19634089 -0.52479059 27 10
4.5634837 0.33833629 -0.030903198 43 54
4.5834184 0.33980715 0.032630395 35 62
4.5062876 0.46701416 -0.22688445 23 29
4.5289116 0.46935615 -0.16405347 52 37
4.4818773 0.59587747 -0.29711899 58 24
4.5006132 0.59677202 -0.23524971 53 28
4.5311122 0.19338411 -0.085603863 28 47
4.4664121 0.32255307 -0.34100863 29 21
4.5518503 0.19425695 -0.022878312 51 55
4.4857173 0.32315335 -0.2798956 35 25
4.4031839 0.057545945 -0.44287544 38 14
4.5617533 0.19387613 0.040321805 25 63
4.4991446 0.32411581 -0.21806662 23 30
4.4239602 0.057027541 -0.38238981 35 18
4.5217404 0.32494223 -0.15626344 52 38
4.4387975 0.056431402 -0.32257873 34 22
4.5467086 0.46077403 -0.10209639 54 45
4.4528532 0.056598227 -0.26166034 37 26
4.3758373 0.31297407 -0.54579014 54 9
4.4760642 0.056092381 -0.20086409 29 32
4.4206905 0.31616557 -0.4612492 36 13
4.4884405 0.055453613 -0.13915838 42 40
4.4416428 0.31687728 -0.40118521 37 17
4.5049458 0.055643756 -0.077232838 23 48
4.4873137 0.18526439 -0.20931783 32 31
4.5047798 0.18597506 -0.14758945 50 39
4.543819 0.3209416 -0.093871653 25 46
4.4009237 0.18097991 -0.52479059 36 10
4.5646372 0.32240468 -0.030903198 45 54
4.5746012 0.32310492 0.032558836 49 62
4.5128593 0.45177832 -0.22713655 28 29
4.5305228 0.45354447 -0.16405347 44 37
4.4690862 0.57830656 -0.2961275 42 24
4.5076208 0.581698 -0.23551053 47 28
4.5267644 0.17737363 -0.085508749 31 47
4.4625373 0.30662045 -0.34062591 34 21
4.5475044 0.17817402 -0.022853004 55 55
4.4818392 0.30715388 -0.2795825 40 25
4.403358 0.042175613 -0.44287544 51 14
4.5574069 0.17775953 0.040277302 29 63
4.5002484 0.30840886 -0.21806662 30 30
4.4191523 0.04154209 -0.3819558 45 18
4.5178614 0.30881742 -0.15608981 54 38
4.4289947 0.04085321 -0.32184806 42 22
4.5482888 0.44490024 -0.10209639 47 45
4.4530239 0.041054524 -0.26166034 48 26
4.4016519 0.29937184 -0.5489018 57 9
4.4712386 0.040426686 -0.20063816 35 32
4.4217672 0.30073258 -0.4612492 49 13
4.4836087 0.039745569 -0.1390022 43 40
4.4427218 0.30137116 -0.40118521 43 17
4.500113 0.039878085 -0.077146441 28 48
4.4879336 0.16959962 -0.20931783 37 31
4.5054016 0.17024933 -0.14758945 53 39
4.5449114 0.30507877 -0.093871653 28 46
4.4015288 0.16561672 -0.52479059 43 10
4.5657349 0.30646917 -0.030903198 45 54
4.5806899 0.30746773 0.032594617 47 62
4.5094376 0.43554324 -0.22688445 39 29
4.5271039 0.43724746 -0.16387199 42 37
4.480978 0.56395024 -0.29678848 49 24
4.5046697 0.56533748 -0.23524971 45 28
4.5223594 0.16139585 -0.085413627 44 47
4.4586053 0.29071885 -0.34024316 43 21
4.5431013 0.16212381 -0.022827694 52 55
4.4779043 0.29118544 -0.27926946 44 25
4.3985043 0.026778722 -0.44237101 49 14
4.5579996 0.16185015 0.040277302 32 63
4.496314 0.29237592 -0.21782324 47 30
4.4142885 0.026090909 -0.38152176 50 18
4.5189118 0.29304525 -0.15608981 55 38
4.4241238 0.025368514 -0.32148278 49 22
4.5498142 0.42902106 -0.10209639 42 45
4.4481497 0.025485929 -0.2613647 44 26
4.4026699 0.28400537 -0.5489018 58 9
4.4613624 0.024771824 -0.20018625 36 32
4.4227896 0.2852959 -0.4612492 47 13
4.4837203 0.024094615 -0.1390022 43 40
4.4437466 0.28586131 -0.40118521 53 17
4.5002246 0.024169512 -0.077146441 29 48
4.4835062 0.15376458 -0.20908317 48 31
4.5009732 0.15435317 -0.14742453 50 39
4.545949 0.2892122 -0.093871653 31 46
4.3971181 0.15008515 -0.52419424 47 10
4.5617867 0.29021418 -0.030869164 46 54
4.5717564 0.29084492 0.032523058 43 62
4.5109305 0.41979972 -0.22688445 37 29
4.5286026 0.42144224 -0.16387199 40 37
4.4684792 0.54653734 -0.3585124 49 20
4.4829197 0.54830527 -0.29678848 46 24
4.5066152 0.54960984 -0.23524971 45 28
4.5244155 0.5509814 -0.17291629 37 36
4.517899 0.14545101 -0.085318521 41 47
4.4595928 0.27515367 -0.34024316 41 21
4.5436397 0.14626443 -0.022827694 48 55
4.4788938 0.27555287 -0.27926946 38 25
4.3935966 0.011416231 -0.44186664 51 14
4.5535393 0.14578171 0.040232796 39 63
4.4873376 0.27606931 -0.21733648 38 30
4.4093719 0.010674182 -0.38108772 43 18
4.509932 0.27666119 -0.15574256 45 38
4.419199 0.0099183219 -0.32111746 43 22
4.5512843 0.41313663 -0.10209639 36 45
4.4432201 0.0099518653 -0.26106903 45 26
4.4036345 0.26863548 -0.5489018 57 9
4.5672736 0.41378251 -0.038912274 37 53
4.4614215 0.0091986153 -0.20018625 41 32
4.4237585 0.26985574 -0.4612492 40 13
4.4787793 0.008438128 -0.13884601 47 40
4.4397469 0.27004749 -0.4007329 36 17
4.4790239 0.13796251 -0.20884851 37 31
4.5014849 0.13864091 -0.14742453 48 39
4.5369506 0.2727457 -0.093663968 40 46
4.3976154 0.13473545 -0.52419424 41 10
4.5577812 0.27399057 -0.030835127 47 54
4.5677524 0.27458647 0.032487281 33 62
4.5073948 0.40360633 -0.22663236 42 29
4.5619154 0.27343857 0.095765203 43 69
4.5250692 0.40518683 -0.16369051 45 37
4.4604607 0.52975923 -0.35771215 14 20
4.4848056 0.53265363 -0.29678848 41 24
4.5085063 0.53387547 -0.23524971 39 28
4.5263109 0.53518486 -0.17291629 52 36
4.5183797 0.12967971 -0.085318521 23 47
4.460526 0.25958508 -0.34024316 36 21
4.5441227 0.13040328 -0.022827694 41 55
4.4798284 0.25991693 -0.27926946 32 25
4.3936095 -0.003920964 -0.44186664 47 14
4.4932594 0.26069137 -0.21757986 17 30
4.4143634 -0.0047276383 -0.38152176 42 18
4.5108705 0.26091689 -0.15574256 41 38
4.4192066 -0.0055082361 -0.32111746 41 22
4.5526986 0.39724717 -0.10209639 36 45
4.4382362 -0.0055480921 -0.26077336 28 26
4.3995924 0.25297928 -0.54827946 53 9
4.5686903 0.39783719 -0.038912274 43 53
4.4564314 -0.0063639963 -0.19996031 36 32
4.4197087 0.25412863 -0.46072742 23 13
4.4687867 -0.007171982 -0.13853365 45 40
4.4406624 0.25454822 -0.4007329 34 17
4.4794784 0.12232696 -0.20884851 20 31
4.4969463 0.12279353 -0.14725962 40 39
4.5328841 0.25662637 -0.093560137 17 46
4.3980589 0.11938408 -0.52419424 37 10
4.5587101 0.25807929 -0.030835127 41 54
4.5636907 0.25835949 0.032451499 17 62
4.5087767 0.3878701 -0.22663236 17 29
4.572825 0.25807273 0.095976375 43 69
4.5264564 0.38938892 -0.16369051 40 37
4.4721851 0.51532835 -0.3585124 20 20
4.4866376 0.51699543 -0.29678848 36 24
4.5103426 0.51813453 -0.23524971 14 28
4.5231876 0.51881182 -0.17272522 44 36
4.5138068 0.11378381 -0.085223407 17 47
4.4614048 0.24401335 -0.34024316 37 21
4.5345535 0.11429448 -0.022777081 46 55
4.4707427 0.24373811 -0.27864328 32 25
4.3885951 -0.019231454 -0.4413622 41 14
4.4891558 0.24473532 -0.21733648 20 30
4.4043579 -0.020082714 -0.38065365 35 18
4.5067635 0.24490006 -0.15556893 40 38
4.4141736 -0.020906262 -0.32075211 31 22
4.544095 0.38051978 -0.10187126 14 45
4.4331985 -0.021012519 -0.26047769 40 26
4.3954949 0.23735461 -0.54765719 51 9
4.5650692 0.38147131 -0.038869519 39 53
4.4563823 -0.021919806 -0.19996031 17 32
4.4205694 0.23869942 -0.46072742 39 13
4.473732 -0.022800572 -0.13868985 43 40
4.441524 0.23904586 -0.4007329 41 17
4.474884 0.10657397 -0.20861384 20 31
4.4873552 0.10686351 -0.14692983 37 39
4.5287604 0.2405387 -0.093456291 30 46
4.3934855 0.10391691 -0.52359784 25 10
4.5545902 0.24190144 -0.030801095 43 54
4.5645647 0.24242768 0.032451499 17 62
4.5051255 0.37171909 -0.22638026 17 29
4.5587215 0.24132152 0.095659614 42 69
4.5228086 0.37317601 -0.16350904 40 37
4.4640503 0.49860668 -0.35771215 17 20
4.4784985 0.50022221 -0.2961275 28 24
4.5121241 0.5023874 -0.23524971 14 28
4.5299373 0.5035724 -0.17291629 45 36
4.5091786 0.097921424 -0.085128285 20 47
4.4572511 0.22818561 -0.33986047 33 21
4.5399237 0.098570824 -0.022802388 43 55
4.4715662 0.22813082 -0.27864328 28 25
4.3885007 -0.034550391 -0.4413622 28 14
4.4849949 0.22881109 -0.21709311 20 30
4.4092417 -0.035501007 -0.38108772 28 18
4.5026002 0.22891505 -0.1553953 34 38
4.4140739 -0.036314476 -0.32075211 23 22
4.5404129 0.36425644 -0.1017587 17 45
4.4330983 -0.036487143 -0.26047769 28 26
4.3962965 0.22201003 -0.54765719 41 9
4.5663729 0.36553392 -0.038869519 35 53
4.4512844 -0.03742915 -0.19973437 23 32
4.4213753 0.2232673 -0.46072742 17 13
4.4636302 -0.038322467 -0.13837747 41 40
4.4373579 0.22329214 -0.40028059 22 17
4.4702358 0.090854578 -0.20837919 20 31
4.4877009 0.09119907 -0.14692983 35 39
4.529572 0.22472891 -0.093456291 20 46
4.3888583 0.08848311 -0.52300149 24 10
4.5504127 0.22575548 -0.030767061 43 54
4.565383 0.2264929 0.032451499 17 62
4.5063963 0.35599104 -0.22638026 20 29
4.5595365 0.22540715 0.095659614 37 69
4.5191026 0.35699329 -0.16332757 36 37
4.4355378 0.48053154 -0.41753969 48 16
4.4657636 0.4830212 -0.35771215 20 20
4.4802175 0.4845863 -0.2961275 24 24
4.5088859 0.48609829 -0.23498893 17 28
4.5266995 0.48722163 -0.17272522 33 36
4.548624 0.48878095 -0.11013058 13 44
4.5044947 0.08209274 -0.085033171 21 47
4.4530411 0.21238981 -0.33947772 23 21
4.5302415 0.082546651 -0.022751771 41 55
4.4723353 0.21252076 -0.27864328 27 25
4.3833795 -0.049808126 -0.4408578 25 14
4.4857664 0.21315415 -0.21709311 25 30
4.4041104 -0.050830193 -0.38065365 29 18
4.5033717 0.21319665 -0.1553953 37 38
4.4139199 -0.051722243 -0.32075211 28 22
4.5416565 0.34840524 -0.1017587 20 45
4.4329438 -0.051961318 -0.26047769 28 26
4.3920894 0.20643164 -0.5470348 54 9
4.5676212 0.34959209 -0.038869519 28 53
4.4511266 -0.052966807 -0.19973437 33 32
4.4221282 0.20783246 -0.46072742 25 13
4.5877233 0.35032293 0.024698908 43 61
4.4331365 0.20757043 -0.39982834 33 17
4.3447485 0.3310349 -0.58040965 12 8
4.4705257 0.075249992 -0.20837919 20 31
4.4879918 0.075533524 -0.14692983 37 39
4.5253358 0.20868789 -0.093352452 23 46
4.3941045 0.073242307 -0.52359784 26 10
4.5511732 0.2098702 -0.030767061 38 54
4.5611515 0.21032681 0.032415722 20 62
4.4976525 0.33950803 -0.22587608 20 29
4.5602951 0.20949002 0.095659614 29 69
4.5153384 0.34084094 -0.16314609 34 37
4.4421391 0.4655652 -0.41800937 43 16
4.4674225 0.46742985 -0.35771215 25 20
4.4818816 0.46894446 -0.2961275 26 24
4.5105553 0.4703564 -0.23498893 23 28
4.5283723 0.47141755 -0.17272522 33 36
4.5503025 0.4729003 -0.11013058 47 44
4.5047536 0.066368617 -0.085033171 23 47
4.4537554 0.1968445 -0.33947772 28 21
4.4730501 0.1969081 -0.27864328 34 25
4.3831787 -0.065108679 -0.4408578 34 14
4.4864831 0.19749461 -0.21709311 25 30
4.4039063 -0.066203102 -0.38065365 32 18
4.5040884 0.19747566 -0.1553953 49 38
4.4137125 -0.067129381 -0.32075211 32 22
4.5428452 0.33254975 -0.1017587 23 45
4.4327354 -0.067434862 -0.26047769 33 26
4.3927827 0.19109911 -0.5470348 54 9
4.5638266 0.33328241 -0.038826756 49 53
4.4359312 -0.068260595 -0.19905654 28 32
4.4228263 0.19239509 -0.46072742 32 13
4.583931 0.33394393 0.024671854 44 61
4.4388084 0.19230835 -0.40028059 35 17
4.415072 0.32088751 -0.58972812 57 8
4.4707613 0.059644483 -0.20837919 29 31
4.4882283 0.059867043 -0.14692983 48 39
4.5260363 0.19289023 -0.093352452 23 46
4.389369 0.057841189 -0.52300149 31 10
4.5468822 0.19377123 -0.030733025 45 54
4.5568628 0.19419302 0.032379944 25 62
4.4988103 0.32380626 -0.22587608 25 29
4.5165005 0.32507741 -0.16314609 47 37
4.4387841 0.44955418 -0.41753969 49 16
4.469027 0.45183277 -0.35771215 23 20
4.4834914 0.4532969 -0.2961275 32 24
4.5121698 0.45460874 -0.23498893 28 28
4.5299907 0.45560768 -0.17272522 46 36
4.5519252 0.45701393 -0.11013058 45 44
4.5049577 0.05064369 -0.085033171 28 47
4.4544148 0.18129678 -0.33947772 42 21
4.4687238 0.18109275 -0.27833018 37 25
4.382925 -0.080408432 -0.4408578 43 14
4.4821548 0.18163221 -0.21684973 30 30
4.4036484 -0.081575193 -0.38065365 37 18
4.4997578 0.18155259 -0.15522167 52 38
4.4084659 -0.082438231 -0.3203868 38 22
4.5439782 0.31669027 -0.1017587 28 45
4.4274831 -0.082810022 -0.26018205 42 26
4.3934231 0.17576428 -0.5470348 55 9
4.5599747 0.31700352 -0.038783994 49 53
4.4456539 -0.083941475 -0.19950843 29 32
4.4185019 0.17675839 -0.46020564 41 13
4.5800805 0.31759566 0.024644801 40 61
4.4344773 0.17661649 -0.39982834 40 17
4.3766155 0.3027432 -0.58440328 40 8
4.470942 0.044038255 -0.20837919 32 31
4.4834127 0.044153616 -0.14676492 51 39
4.5216866 0.1768966 -0.093248606 29 46
4.389544 0.042519078 -0.52300149 40 10
4.5425348 0.1777048 -0.03069899 46 54
4.5625086 0.17847909 0.032415722 30 62
4.4999132 0.30810049 -0.22587608 29 29
4.5176082 0.3093099 -0.16314609 44 37
4.4403267 0.43405721 -0.41753969 55 16
4.4705768 0.43623024 -0.35771215 44 20
4.4850464 0.43764389 -0.2961275 38 24
4.508759 0.43837175 -0.23472811 33 28
4.5315533 0.43979234 -0.17272522 49 36
4.5485172 0.44063941 -0.11000928 54 44
4.5346122 0.587322 -0.18140723 43 35
4.4951086 0.034846596 -0.084842943 31 47
4.4450564 0.16537975 -0.33871228 37 21
4.4643426 0.16531006 -0.27801713 44 25
4.3776445 -0.095594339 -0.44035336 51 14
4.4827619 0.16598547 -0.21684973 32 30
4.3983569 -0.096832424 -0.38021964 43 18
4.5003643 0.16584441 -0.15522167 54 38
4.4081511 -0.097826153 -0.3203868 52 22
4.5400681 0.30049732 -0.10164613 33 45
4.4221768 -0.098149344 -0.25988638 48 26
4.3989677 0.1606065 -0.54765719 56 9
4.5610533 0.30108428 -0.038783994 69 53
4.4303541 -0.099111393 -0.1988306 30 32
4.4141231 0.16115427 -0.45968384 48 13
4.5761724 0.30127838 0.024617748 39 61
4.4300909 0.1609572 -0.39937603 52 17
4.4073153 0.28940874 -0.58839691 41 8
4.466074 0.028402716 -0.20814453 39 31
4.4785428 0.028474534 -0.14660001 54 39
4.5222769 0.16111191 -0.093248606 29 46
4.3847022 0.02716873 -0.52240521 48 10
4.5431275 0.16184732 -0.03069899 48 54
4.5531101 0.16219942 0.032344162 33 62
4.5009613 0.292391 -0.22587608 38 29
4.5136738 0.2932153 -0.16296461 70 37
4.4058156 0.41593415 -0.47605169 41 12
4.4467707 0.41902256 -0.41800937 50 16
4.4671102 0.42015505 -0.35731202 50 20
4.4865465 0.42198548 -0.2961275 53 24
4.5102615 0.42263061 -0.23472811 38 28
4.5330606 0.42397153 -0.17272522 49 36
4.5500278 0.42475942 -0.11000928 54 44
4.5710373 0.42672318 -0.046109702 12 52
4.5316777 0.57086349 -0.18120743 64 35
4.5002022 0.019173849 -0.084938049 34 47
4.4406242 0.14969645 -0.33832955 44 21
4.4599042 0.14956012 -0.27770403 42 25
4.377284 -0.11087459 -0.44035336 47 14
4.4783225 0.15017112 -0.21660635 40 30
4.3880334 -0.11192244 -0.37935156 47 18
4.4959211 0.14996937 -0.15504804 47 38
4.3978133 -0.11294833 -0.31965616 50 22
4.5410895 0.28464767 -0.10164613 43 45
4.4068394 -0.11318783 -0.25899941 48 26
4.3995018 0.14525025 -0.54765719 43 9
4.5620766 0.28516141 -0.038783994 69 53
4.4146585 0.14574511 -0.45968384 47 13
4.572206 0.28499228 0.024590697 38 61
4.4306254 0.14549232 -0.39937603 43 17
4.4033527 0.27371573 -0.5877313 40 8
4.4611516 0.012801704 -0.20790987 42 31
4.4786148 0.012841329 -0.14660001 52 39
4.5178156 0.14516646 -0.093144774 43 46
4.379806 0.0118527 -0.5218088 49 10
4.5386682 0.14582907 -0.030664958 49 54
4.5586467 0.1464639 0.032379944 41 62
4.4969702 0.27637216 -0.22562398 43 29
4.5146699 0.27745783 -0.16296461 42 37
4.4121914 0.40100294 -0.47659084 22 12
4.4432487 0.40304753 -0.41753969 45 16
4.4635868 0.40410942 -0.3569119 47 20
4.4830236 0.40587148 -0.29579699 43 24
4.5117097 0.40688428 -0.23472811 40 28
4.5295372 0.40769717 -0.17253414 51 36
4.5514832 0.40887427 -0.11000928 49 44
4.5675197 0.4103168 -0.046059087 44 52
4.5336428 0.55504155 -0.18120743 38 35
4.4411201 0.13419488 -0.33832955 37 21
4.4603996 0.13399124 -0.27770403 39 25
4.3718982 -0.12600592 -0.43984899 49 14
4.4738274 0.13438977 -0.21636297 40 30
4.3876157 -0.12723884 -0.37935156 43 18
4.4914227 0.13412741 -0.15487443 45 38
4.3973923 -0.12829888 -0.31965616 43 22
4.537065 0.26849988 -0.10153356 38 45
4.4163952 -0.1288695 -0.25959072 49 26
4.399982 0.12989224 -0.54765719 33 9
4.558053 0.2689411 -0.038741231 46 53
4.4151406 0.1303342 -0.45968384 41 13
4.573173 0.26903057 0.024590697 39 61
4.4311061 0.13002566 -0.39937603 35 17
4.4042807 0.25834349 -0.5877313 25 8
4.4611688 -0.0027713198 -0.20790987 25 31
4.4736352 -0.0027865507 -0.14643511 52 39
4.5182943 0.12939546 -0.093144774 35 46
4.3798203 -0.0034363572 -0.5218088 41 10
4.544147 0.13012661 -0.03069899 43 54
4.5028925 0.2609615 -0.22587608 17 29
4.5106225 0.26140854 -0.16278315 41 37
4.4086118 0.38516587 -0.47605169 22 12
4.4446282 0.38753527 -0.41753969 40 16
4.4649701 0.38852614 -0.3569119 43 20
4.4844131 0.39022034 -0.29579699 39 24
4.5081282 0.39070126 -0.2344673 33 28
4.5259547 0.39145249 -0.17234308 49 36
4.5528827 0.39298412 -0.11000928 36 44
4.568924 0.39437065 -0.046059087 46 52
4.530592 0.53862125 -0.18100764 31 35
4.4365778 0.11856027 -0.33794683 42 21
4.4558516 0.1182901 -0.27739093 33 25
4.3664598 -0.141101 -0.43934456 45 14
4.4692774 0.11864167 -0.2161196 20 30
4.3821664 -0.14238769 -0.37891752 41 18
4.4818726 0.11818872 -0.15452717 40 38
4.3919339 -0.14348078 -0.31929085 39 22
4.5329843 0.25238365 -0.101421 17 45
4.4009533 -0.14378314 -0.25870374 47 26
4.3954492 0.11440539 -0.5470348 32 9
4.5539722 0.25275248 -0.038698476 39 53
4.4155684 0.1149217 -0.45968384 23 13
4.5640993 0.25251433 0.024536591 14 61
4.4265552 0.11443055 -0.39892372 39 17
4.3952594 0.24242349 -0.58640009 20 8
4.4561372 -0.018320151 -0.20767519 23 31
4.4735985 -0.018402435 -0.14643511 43 39
4.5087242 0.11337512 -0.09293709 14 46
4.3797817 -0.018724764 -0.5218088 31 10
4.5345769 0.11401598 -0.030630924 45 54
4.4987898 0.24497093 -0.22562398 17 29
4.5065184 0.24539085 -0.16260166 40 37
4.4099298 0.36977461 -0.47605169 23 12
4.5129156 0.64681107 -0.25208262 95 27
4.4459543 0.37201825 -0.41753969 38 16
4.4662995 0.3729381 -0.3569119 36 20
4.4857478 0.37456441 -0.29579699 31 24
4.5094647 0.3749626 -0.2344673 17 28
4.5223145 0.37523785 -0.17215201 38 36
4.5442643 0.37626317 -0.10976671 14 44
4.56529 0.37800661 -0.046008475 39 52
4.5274816 0.52222902 -0.18080786 41 35
4.4369645 0.10307301 -0.33794683 34 21
4.4512477 0.10262234 -0.27707785 28 25
4.3609691 -0.15615962 -0.43884012 37 14
4.4696641 0.10304026 -0.2161196 20 30
4.3816428 -0.15768343 -0.37891752 29 18
4.4872541 0.10265586 -0.1547008 39 38
4.3864226 -0.15862615 -0.3189255 23 22
4.5288453 0.23629917 -0.10130844 20 45
4.4004245 -0.15914446 -0.25870374 43 26
4.3908615 0.098951742 -0.54641247 32 9
4.5498333 0.23659553 -0.038655713 38 53
4.4109716 0.09939757 -0.45916212 39 13
4.5649529 0.23658112 0.024536591 14 61
4.4219489 0.098868795 -0.39847142 32 17
4.3911304 0.22682467 -0.58573449 20 8
4.4510527 -0.033833895 -0.20744056 25 31
4.4685097 -0.033977095 -0.14627022 45 39
4.5040946 0.097529612 -0.092833243 14 46
4.3747258 -0.033971351 -0.52121246 25 10
4.5399461 0.098293126 -0.030664958 41 54
4.4896431 0.22875871 -0.22511978 23 29
4.502357 0.229405 -0.16242018 38 37
4.421103 0.35517612 -0.47712994 23 12
4.5102024 0.63036019 -0.25180441 97 27
4.4422641 0.35609835 -0.41707003 23 16
4.4675736 0.35734552 -0.3569119 20 20
4.4820547 0.35850555 -0.29546648 26 24
4.510746 0.35921937 -0.2344673 20 28
4.5186162 0.3590534 -0.17196095 35 36
4.5405669 0.36000276 -0.10964542 14 44
4.5665817 0.36206844 -0.046008475 36 52
4.5292768 0.50642198 -0.18080786 36 35
4.5512166 0.50888288 -0.11818188 56 43
4.4323125 0.087487899 -0.33756408 23 21
4.4515786 0.087083958 -0.27707785 38 25
4.3603973 -0.17138131 -0.43884012 25 14
4.465003 0.087341718 -0.21587622 23 30
4.3760891 -0.17277652 -0.3784835 24 18
4.4825883 0.086896725 -0.15452717 36 38
4.3808599 -0.1737348 -0.31856021 25 22
4.5246496 0.22024667 -0.10119586 23 45
4.3961406 0.083716825 -0.5470348 39 9
4.5456371 0.22047055 -0.038612951 38 53
4.4112911 0.083999805 -0.45916212 23 13
4.5607572 0.22040425 0.024509538 17 61
4.4272466 0.083524831 -0.39892372 25 17
4.3918953 0.21149537 -0.58573449 28 8
4.4459128 -0.049312357 -0.20720588 25 31
4.5044074 0.081806794 -0.092833243 17 46
4.3745804 -0.049241785 -0.52121246 26 10
4.5352621 0.082356147 -0.030630924 28 54
4.4854264 0.21284945 -0.2248677 23 29
4.5031304 0.21368745 -0.16242018 35 37
4.4786978 0.61080182 -0.31277335 96 23
4.4173603 0.33936009 -0.47659084 25 12
4.5074286 0.61393619 -0.25152615 47 27
4.4385166 0.3402088 -0.41660035 27 16
4.4638238 0.34136799 -0.35651177 17 20
4.4783039 0.34247708 -0.29513597 23 24
4.4970365 0.34233293 -0.23368487 20 28
4.5148602 0.34289935 -0.17176987 30 36
4.5417957 0.34415102 -0.10964542 17 44
4.5678177 0.3461259 -0.046008475 29 52
4.5869107 0.36126593 0.016731562 42 60
4.5260501 0.49006924 -0.18060808 34 35
4.5529647 0.49299312 -0.11818188 95 43
4.4375763 0.072094895 -0.33794683 25 21
4.4568458 0.071622908 -0.27739093 29 25
4.3597732 -0.18660088 -0.43884012 30 14
4.465281 0.071755417 -0.21587622 23 30
4.3754592 -0.18805087 -0.3784835 29 18
4.4828644 0.071249045 -0.15452717 52 38
4.3702626 -0.18858728 -0.31782955 28 22
4.5253906 0.20445135 -0.10119586 23 45
4.3914452 0.068295583 -0.54641247 54 9
4.5413842 0.20437779 -0.038570188 35 53
4.4065852 0.068525501 -0.45864031 29 13
4.5614986 0.20448288 0.024509538 20 61
4.4225321 0.0679956 -0.39847142 30 17
4.3876562 0.19594303 -0.58506888 35 8
4.4457135 -0.064831182 -0.20720588 25 31
4.5046654 0.066082977 -0.092833243 20 46
4.374382 -0.064511627 -0.52121246 30 10
4.4911308 0.19740976 -0.22511978 23 29
4.498857 0.19774847 -0.16223872 55 37
4.4758587 0.59450489 -0.31242543 97 23
4.4185181 0.32393858 -0.47659084 28 12
4.5095444 0.59819853 -0.25152615 42 27
4.4396772 0.32471338 -0.41660035 32 16
4.4649882 0.32578424 -0.35651177 23 20
4.4794722 0.32684278 -0.29513597 28 24
4.4982042 0.32663327 -0.23368487 23 28
4.5210128 0.32749903 -0.17196095 40 36
4.5429697 0.32829514 -0.10964542 25 44
4.5640116 0.32981822 -0.04595786 40 52
4.583158 0.34487665 0.016713236 45 60
4.5277333 0.47426736 -0.18060808 48 35
4.5496874 0.47657481 -0.11805186 51 43
4.4378004 0.056604423 -0.33794683 30 21
4.4520783 0.056004204 -0.27707785 34 25
4.3590946 -0.2018182 -0.43884012 37 14
4.4605107 0.05610723 -0.21563284 28 30
4.3747764 -0.20332293 -0.3784835 33 18
4.4830856 0.055600494 -0.15452717 54 38
4.3745594 -0.20407784 -0.3181949 29 22
4.5260773 0.18865354 -0.10119586 28 45
4.3916564 0.05296617 -0.54641247 57 9
4.5420699 0.18852416 -0.038570188 54 53
4.4067974 0.053143233 -0.45864031 34 13
4.5621843 0.18855904 0.024509538 28 61
4.4227424 0.05255767 -0.39847142 49 17
4.3883133 0.18062606 -0.58506888 49 8
4.4404664 -0.080255963 -0.20697121 29 31
4.5048685 0.050358355 -0.092833243 28 46
4.3741302 -0.079780675 -0.52121246 34 10
4.4917922 0.18173158 -0.22511978 28 29
4.4995198 0.1820433 -0.16223872 66 37
4.4779062 0.57887757 -0.31242543 97 23
4.4196215 0.30851308 -0.47659084 47 12
4.5017033 0.58116937 -0.25096968 48 27
4.4358172 0.30886766 -0.41613066 38 16
4.5345702 0.58462757 -0.18932442 49 34
4.4611268 0.30985063 -0.35611165 28 20
4.4805861 0.31120455 -0.29513597 35 24
4.4993162 0.3109296 -0.23368487 28 28
4.5171437 0.31137156 -0.17176987 47 36
4.5440879 0.31243518 -0.10964542 30 44
4.5601468 0.31354126 -0.045907244 43 52
4.5793467 0.32851797 0.016694909 47 60
