# .PCD v0.7 - Point Cloud Data file format
VERSION 0.7
FIELDS x y z intensity ring
SIZE 4 4 4 4 2
TYPE F F F F U
COUNT 1 1 1 1 1
WIDTH 1265
HEIGHT 1
VIEWPOINT 0 0 0 1 0 0 0
POINTS 1265
DATA ascii
4.2307673 1.351703 -0.19928248 30 32
4.0376444 1.5572931 -0.45029193 26 13
4.2475314 1.3562269 -0.13822129 20 40
4.0526862 1.562276 -0.39123473 20 17
4.2775416 1.3657813 -0.076973669 30 48
4.1663795 1.4643345 -0.20579791 41 31
4.192266 1.473415 -0.14544569 28 39
4.1767812 1.6067128 -0.092210211 42 46
4.0807543 1.4334989 -0.51524889 20 10
4.2009149 1.6159865 -0.03039268 43 54
4.2149062 1.6213629 0.032057934 20 62
4.0730257 1.7052008 -0.22108628 51 29
4.0939426 1.7139548 -0.15987954 54 37
3.9643798 1.7960659 -0.34650865 40 20
3.9820356 1.8040676 -0.287204 47 24
4.2251787 1.4750276 -0.084462479 46 47
4.0847583 1.5623569 -0.33297139 29 21
4.2494912 1.4834988 -0.022599922 37 55
4.1076264 1.5702722 -0.27363396 41 25
4.1511788 1.3127915 -0.43783128 28 14
4.2496376 1.4827178 0.039743237 23 63
4.1294603 1.5786097 -0.21368581 47 30
4.1759038 1.3197857 -0.3784835 28 18
4.1507978 1.5859277 -0.15313816 30 38
4.1854734 1.3219979 -0.3189255 39 22
4.1271634 1.7168636 -0.099845089 10 45
4.2035985 1.3277057 -0.25899941 20 26
4.0105376 1.5307918 -0.53396571 25 9
4.2306952 1.3354273 -0.19905654 40 32
4.0477014 1.544961 -0.45081365 29 13
4.2570071 1.3428913 -0.13837747 29 40
4.0674214 1.5516663 -0.39213935 34 17
4.180903 1.4530557 -0.20626724 48 31
4.2021046 1.4604099 -0.14561059 34 39
4.1823645 1.5921233 -0.092210211 42 46
4.0857339 1.4192456 -0.51524889 23 10
4.2065301 1.6013126 -0.03039268 43 54
4.2205405 1.6066402 0.032057934 41 62
4.0789533 1.6909729 -0.22108628 50 29
4.0999002 1.6996537 -0.15987954 50 37
3.956985 1.7760923 -0.34530827 51 20
3.9837573 1.788113 -0.28687349 50 24
4.2303019 1.4602699 -0.084462479 47 47
4.0901871 1.5480889 -0.33297139 37 21
4.2546439 1.4686563 -0.022599922 49 55
4.1130824 1.5559243 -0.27363396 42 25
4.1557355 1.298293 -0.43783128 35 14
4.1349454 1.5641856 -0.21368581 47 30
4.1804852 1.3052012 -0.3784835 35 18
4.1563087 1.571429 -0.15313816 40 38
4.1900625 1.3073798 -0.3189255 43 22
4.1285086 1.7005433 -0.099732518 44 45
4.2225051 1.3174722 -0.25988638 28 26
4.0297823 1.5220366 -0.5358327 29 9
4.2305617 1.3191684 -0.1988306 43 32
4.057723 1.5325778 -0.45133546 35 13
4.2521238 1.325058 -0.13806511 36 40
4.072813 1.5374589 -0.39213935 40 17
4.1906743 1.4400733 -0.2065019 50 31
4.2071772 1.4457331 -0.14561059 43 39
4.1878963 1.5775144 -0.092210211 43 46
4.0953588 1.4065847 -0.51584524 25 10
4.2074146 1.5848587 -0.030358648 43 54
4.2261229 1.591898 0.032057934 42 62
4.0894508 1.6786202 -0.22133839 43 29
4.1104307 1.6872289 -0.16006102 39 37
3.9768219 1.7683458 -0.34650865 47 20
3.9945333 1.776224 -0.287204 47 24
4.2353735 1.4454945 -0.084462479 49 47
4.0955658 1.533802 -0.33297139 39 21
4.255012 1.4521837 -0.022574617 44 55
4.1184883 1.5415576 -0.27363396 38 25
4.1649971 1.2852417 -0.43833572 46 14
4.1403799 1.5497425 -0.21368581 49 30
4.1802545 1.2891365 -0.37804943 44 18
4.1617684 1.5569111 -0.15313816 43 38
4.1946006 1.2927459 -0.3189255 43 22
4.1390486 1.688009 -0.099845089 40 45
4.227078 1.302725 -0.25988638 32 26
4.0397182 1.5096958 -0.53645509 48 9
4.2351408 1.3043931 -0.1988306 42 32
4.0630479 1.5184044 -0.45133546 44 13
4.2615004 1.3116732 -0.13822129 46 40
4.078155 1.5232326 -0.39213935 43 17
4.1956754 1.4254361 -0.2065019 50 31
4.2074656 1.4294337 -0.14544569 46 39
4.1933775 1.5628864 -0.092210211 43 46
4.100244 1.3922807 -0.51584524 29 10
4.2129211 1.5701624 -0.030358648 40 54
4.2316537 1.5771364 0.032057934 41 62
4.0906587 1.6624554 -0.22108628 40 29
4.1162953 1.6728705 -0.16006102 38 37
3.9738481 1.7504338 -0.34570837 47 20
3.9961433 1.7602578 -0.28687349 41 24
4.0228868 1.7703655 -0.22768626 50 28
4.2403936 1.4307015 -0.084462479 46 47
4.1008954 1.5194964 -0.33297139 44 21
4.2695322 1.4405133 -0.022625232 43 55
4.1238446 1.527172 -0.27363396 42 25
4.1694584 1.2706953 -0.43833572 49 14
4.1457648 1.5352803 -0.21368581 44 30
4.1847291 1.274537 -0.37804943 46 18
4.1671777 1.5423745 -0.15313816 40 38
4.1990876 1.2780962 -0.3189255 45 22
4.1402798 1.6716797 -0.099732518 46 45
4.2220473 1.2850631 -0.25929505 42 26
4.0449634 1.4955853 -0.53645509 49 9
4.2444477 1.2910511 -0.19905654 43 32
4.0683231 1.5042124 -0.45133546 45 13
4.2660532 1.2967898 -0.13822129 43 40
4.083447 1.508988 -0.39213935 45 17
4.2006259 1.4107819 -0.2065019 52 31
4.2124295 1.4147382 -0.14544569 36 39
4.1988072 1.5482392 -0.092210211 39 46
4.109786 1.3795366 -0.51644164 34 10
4.2183766 1.555447 -0.030358648 30 54
4.2324414 1.5606275 0.032022152 34 62
4.1010699 1.6500298 -0.22133839 40 29
4.1174736 1.6566273 -0.15987954 20 37
3.9565756 1.7271786 -0.40391916 38 16
3.9845023 1.7385458 -0.3461085 39 20
4.0068359 1.7482939 -0.287204 31 24
4.0381961 1.7603039 -0.22820789 40 28
4.2501049 1.4174697 -0.084557593 43 47
4.1061745 1.5051725 -0.33297139 38 21
4.2697902 1.424022 -0.022599922 40 55
4.1244636 1.5110526 -0.27332085 30 25
4.1738687 1.2561334 -0.43833572 48 14
4.1510983 1.5207996 -0.21368581 39 30
4.1939235 1.2613524 -0.3784835 38 18
4.1725359 1.5278188 -0.15313816 20 38
4.2035232 1.2634307 -0.3189255 43 22
4.1460896 1.6572171 -0.099732518 31 45
4.2217259 1.2688849 -0.25899941 41 26
4.0501595 1.4814566 -0.53645509 47 9
4.2489281 1.2762274 -0.19905654 42 32
4.0735493 1.4900022 -0.45133546 43 13
4.2705536 1.2818907 -0.13822129 41 40
4.0886893 1.494725 -0.39213935 42 17
4.2055244 1.3961104 -0.2065019 48 31
4.2173424 1.4000255 -0.14544569 38 39
4.204186 1.533573 -0.092210211 34 46
4.1098642 1.3636218 -0.51584524 45 10
4.228478 1.5424242 -0.03039268 14 54
4.2378631 1.5458438 0.032022152 14 62
4.1021652 1.633857 -0.22108628 37 29
4.1278739 1.6440929 -0.16006102 17 37
3.9717181 1.7173094 -0.40485853 17 16
3.9905469 1.7246267 -0.3461085 43 20
4.0129142 1.7342967 -0.287204 12 24
4.0397325 1.7442174 -0.22794707 32 28
4.0655041 1.7545066 -0.16794853 11 36
4.2550263 1.4026253 -0.084557593 31 47
4.1067152 1.489132 -0.33258864 25 21
4.1344056 1.4983451 -0.27363396 14 25
4.1734576 1.2401434 -0.43783128 45 14
4.1516852 1.5046004 -0.21344243 43 30
4.1983018 1.2467053 -0.3784835 31 18
4.177844 1.5132447 -0.15313816 14 38
4.2079082 1.2487501 -0.3189255 43 22
4.1518497 1.6427345 -0.099732518 37 45
4.2261295 1.2541407 -0.25899941 29 26
4.0506406 1.4656237 -0.5358327 41 9
4.1809282 1.653392 -0.038142584 51 53
4.2533574 1.2613881 -0.19905654 40 32
4.0787258 1.4757738 -0.45133546 31 13
4.0938826 1.4804436 -0.39213935 41 17
4.2103724 1.3814219 -0.2065019 40 31
4.2269526 1.3868508 -0.14561059 14 39
4.2048111 1.5171936 -0.092106365 17 46
4.1145988 1.3492675 -0.51584524 47 10
4.2291327 1.5259595 -0.030358648 17 54
4.2479372 1.5327369 0.032057934 14 62
4.1124892 1.6213589 -0.22133839 17 29
4.1335874 1.6296738 -0.16006102 23 37
3.9776888 1.7034349 -0.40485853 14 16
3.9919605 1.7087246 -0.34570837 27 20
4.0143571 1.7183145 -0.28687349 14 24
4.0503869 1.7320693 -0.22820789 25 28
4.0807915 1.7442331 -0.16833065 41 36
4.2598968 1.3877642 -0.084557593 17 47
4.1165824 1.4764696 -0.33297139 26 21
4.1396108 1.4839042 -0.27363396 33 25
4.1777611 1.2255678 -0.43783128 37 14
4.1522112 1.4884158 -0.21319906 25 30
4.2026277 1.2320428 -0.3784835 23 18
4.1783957 1.4969685 -0.15296453 20 38
4.2122412 1.2340542 -0.3189255 42 22
4.1575584 1.6282319 -0.099732518 36 45
4.2304816 1.2393812 -0.25899941 17 26
4.0557318 1.4514755 -0.5358327 25 9
4.1913295 1.6406095 -0.038185343 52 53
4.2481446 1.2437346 -0.19860466 29 32
4.0838518 1.4615275 -0.45133546 29 13
4.103714 1.4678195 -0.3925916 20 17
4.0027323 1.565202 -0.57242233 40 8
4.2151685 1.3667165 -0.2065019 20 31
4.2317677 1.3720875 -0.14561059 23 39
4.2147899 1.5041852 -0.092210211 23 46
4.1192832 1.3348967 -0.51584524 45 10
4.2344332 1.5111878 -0.030358648 25 54
4.2485514 1.5162206 0.032022152 20 62
4.118124 1.6069938 -0.22133839 25 29
4.1345954 1.6134192 -0.15987954 23 37
3.9881933 1.6914841 -0.40532821 17 16
4.0024896 1.6967255 -0.3461085 29 20
4.0295172 1.708187 -0.28753451 14 24
4.0610061 1.7198681 -0.2284687 25 28
4.0822544 1.7280296 -0.16813959 46 36
4.2694745 1.3744148 -0.084652707 25 47
4.12641 1.4637558 -0.33335412 26 21
4.1447654 1.4694452 -0.27363396 20 25
4.182014 1.2109772 -0.43783128 26 14
4.1573815 1.4739128 -0.21319906 25 30
4.2069025 1.2173653 -0.3784835 23 18
4.1835957 1.4823741 -0.15296453 20 38
4.2165232 1.2193431 -0.3189255 26 22
4.1632166 1.6137093 -0.099732518 38 45
4.2395782 1.2259887 -0.25929505 20 26
4.0654511 1.4389631 -0.53645509 23 9
4.1877065 1.6223577 -0.038099822 66 53
4.2572608 1.230281 -0.1988306 20 32
4.093617 1.4489206 -0.45185724 28 13
4.1088128 1.4534858 -0.3925916 20 17
4.0127935 1.5530083 -0.57308793 30 8
4.219914 1.3519945 -0.2065019 28 31
4.2412915 1.3588294 -0.1457755 28 39
4.2247291 1.4911257 -0.092314042 31 46
4.1239181 1.3205096 -0.51584524 23 10
4.2396827 1.4963976 -0.030358648 30 54
4.2538185 1.5013812 0.032022152 29 62
4.1237087 1.5926089 -0.22133839 37 29
4.1448641 1.6007764 -0.16006102 30 37
3.9881771 1.675894 -0.46526912 43 12
3.998662 1.6794806 -0.40579784 20 16
4.0129833 1.6846737 -0.34650865 24 20
4.0400553 1.6960427 -0.28786501 17 24
4.0669847 1.705682 -0.2284687 34 28
4.0928693 1.7157017 -0.16833065 50 36
4.2742462 1.3595031 -0.084652707 30 47
4.1314945 1.4493431 -0.33335412 33 21
4.1498694 1.4549683 -0.27363396 25 25
4.191 1.1977347 -0.43833572 26 14
4.1719279 1.462693 -0.21368581 35 30
4.2111263 1.2026731 -0.3784835 23 18
4.1934609 1.4694123 -0.15313816 29 38
4.2255502 1.2059817 -0.31929085 26 22
4.1688242 1.5991672 -0.099732518 46 45
4.2438316 1.2111825 -0.25929505 25 26
4.0798154 1.4280378 -0.5376997 29 9
4.1980128 1.6095195 -0.038142584 66 53
4.261529 1.2154129 -0.1988306 25 32
4.1033444 1.4362636 -0.45237902 36 13
4.2123914 1.6141874 0.024211962 44 61
4.1185617 1.4407771 -0.39304391 29 17
4.0228181 1.5407636 -0.57375354 32 8
4.2293696 1.3387603 -0.20673655 38 31
4.2412434 1.3425109 -0.14561059 32 39
4.2251883 1.4747241 -0.092210211 42 46
4.1332364 1.3076007 -0.51644164 25 10
4.2448802 1.4815892 -0.030358648 42 54
4.2590332 1.4865234 0.032022152 20 62
4.1292424 1.5782049 -0.22133839 49 29
4.1504264 1.5862985 -0.16006102 40 37
3.9940026 1.6619626 -0.46526912 40 12
4.0090961 1.6674247 -0.40626752 20 16
4.0188394 1.6706555 -0.34650865 29 20
4.0459514 1.6819299 -0.28786501 29 24
4.0775251 1.6933908 -0.22872949 44 28
4.0988331 1.7014043 -0.16833065 46 36
4.1239877 1.7110057 -0.10746221 13 44
4.1365285 1.4349127 -0.33335412 32 21
4.154923 1.4404737 -0.27363396 29 25
4.1903663 1.181752 -0.43783128 29 14
4.1817274 1.4497557 -0.21392919 46 30
4.2152987 1.1879662 -0.3784835 28 18
4.2032871 1.4563998 -0.15331179 38 38
4.2297344 1.1912245 -0.31929085 35 22
4.1790547 1.5863793 -0.099845089 42 45
4.2528396 1.1977104 -0.25959072 29 26
4.0847754 1.4137878 -0.5376997 31 9
4.2036057 1.594856 -0.038142584 66 53
4.2609363 1.1991808 -0.19860466 32 32
4.1083326 1.4219315 -0.45237902 32 13
4.2226758 1.6012458 0.024239015 28 61
4.1235662 1.4263917 -0.39304391 35 17
4.028172 1.5267119 -0.57375354 43 8
4.2340169 1.3239889 -0.20673655 48 31
4.255445 1.3306752 -0.14594039 42 39
4.2303104 1.4599664 -0.092210211 42 46
4.1377754 1.293165 -0.51644164 25 10
4.2500262 1.4667629 -0.030358648 42 54
4.1347265 1.5637815 -0.22133839 51 29
4.1559386 1.5718012 -0.16006102 48 37
4.0043755 1.649905 -0.46580821 47 12
4.0194945 1.6553161 -0.40673721 25 16
4.0292549 1.6585145 -0.34690878 43 20
4.0517974 1.6677967 -0.28786501 35 24
4.0787935 1.6772478 -0.2284687 43 28
4.1093683 1.6889863 -0.16852172 46 36
4.1299353 1.6965998 -0.10746221 44 44
4.1415119 1.4204649 -0.33335412 38 21
4.1646471 1.427578 -0.27394706 43 25
4.1992598 1.1684471 -0.43833572 36 14
4.1867623 1.4351499 -0.21392919 47 30
4.2242193 1.174575 -0.37891752 29 18
4.2036171 1.4401007 -0.15313816 47 38
4.2338667 1.1764526 -0.31929085 44 22
4.184567 1.5717819 -0.099845089 43 45
4.2521839 1.1815256 -0.25929505 33 26
4.0896854 1.3995206 -0.5376997 31 9
4.209147 1.580173 -0.038142584 65 53
4.1132712 1.407582 -0.45237902 37 13
4.2235579 1.5847402 0.024211962 44 61
4.1332321 1.413599 -0.39349622 30 17
4.0334768 1.5126417 -0.57375354 49 8
4.2433858 1.3106724 -0.20697121 49 31
4.2505126 1.312869 -0.14561059 45 39
4.2353806 1.445191 -0.092210211 43 46
4.1470094 1.2801752 -0.51703799 28 10
4.2598524 1.4535314 -0.03039268 42 54
4.1448369 1.5510887 -0.22159049 49 29
4.1613998 1.5572846 -0.16006102 47 37
4.0055079 1.6340389 -0.46526912 54 12
4.0252485 1.6412755 -0.40673721 33 16
4.0350199 1.6444397 -0.34690878 37 20
4.0575948 1.6536431 -0.28786501 48 24
4.0892477 1.6648833 -0.22872949 43 28
4.1152387 1.6746316 -0.16852172 43 36
4.1358323 1.6821734 -0.10746221 38 44
4.1464453 1.4059995 -0.33335412 41 21
4.1696043 1.4130319 -0.27394706 43 25
4.2081108 1.1550945 -0.43884012 46 14
4.1917467 1.4205266 -0.21392919 49 30
4.2282939 1.1598226 -0.37891752 33 18
4.2086182 1.4254186 -0.15313816 44 38
4.2331367 1.1603525 -0.3189255 44 22
4.1900277 1.5571654 -0.099845089 46 45
4.2514677 1.1653603 -0.25899941 45 26
4.0992455 1.3868246 -0.53832209 38 9
4.20995 1.5637301 -0.038099822 62 53
4.1181593 1.3932154 -0.45237902 42 13
4.2290645 1.5699875 0.024211962 38 61
4.1334238 1.3975694 -0.39304391 44 17
4.0480242 1.5019995 -0.57508475 52 8
4.2431574 1.2943978 -0.20673655 50 31
4.2646308 1.3009343 -0.14594039 47 39
4.2403998 1.430398 -0.092210211 40 46
4.1514525 1.2656918 -0.51703799 33 10
4.2601628 1.4370565 -0.030358648 42 54
4.1502252 1.5366111 -0.22159049 44 29
4.16681 1.5427492 -0.16006102 43 37
4.0111876 1.6200472 -0.46526912 33 12
4.0309529 1.6272146 -0.40673721 42 16
4.0453572 1.6322103 -0.34730887 43 20
4.0633421 1.6394695 -0.28786501 41 24
4.0950341 1.650599 -0.22872949 43 28
4.116425 1.6583889 -0.16833065 41 36
4.1370425 1.6658586 -0.10734092 45 44
4.1513276 1.3915172 -0.33335412 40 21
4.1745114 1.3984686 -0.27394706 40 25
4.2121172 1.1403983 -0.43884012 49 14
4.1966796 1.4058859 -0.21392919 42 30
4.232317 1.145056 -0.37891752 40 18
4.2135687 1.4107192 -0.15313816 43 38
4.2419763 1.1468663 -0.31929085 43 22
4.1954379 1.5425301 -0.099845089 38 45
4.2555094 1.1505127 -0.25899941 39 26
4.1040616 1.372507 -0.53832209 51 9
4.2153826 1.5490252 -0.038099822 33 53
4.1229973 1.3788319 -0.45237902 44 13
4.2345185 1.5552158 0.024211962 17 61
4.1382771 1.3831326 -0.39304391 43 17
4.0532427 1.48786 -0.57508475 39 8
4.2476497 1.2795787 -0.20673655 48 31
4.2643604 1.2846017 -0.1457755 45 39
4.2453671 1.4155875 -0.092210211 33 46
4.1558452 1.2511926 -0.51703799 45 10
4.2698965 1.4237568 -0.03039268 40 54
4.1555643 1.5221148 -0.22159049 40 29
4.1674781 1.526477 -0.15987954 30 37
4.016818 1.6060356 -0.46526912 34 12
4.0366087 1.613134 -0.40673721 36 16
4.0464015 1.6162301 -0.34690878 43 20
4.0690403 1.6252757 -0.28786501 35 24
4.1007705 1.6362947 -0.22872949 35 28
4.1268296 1.6458611 -0.16852172 30 36
4.1474752 1.6532592 -0.10746221 34 44
4.0670915 1.7751138 -0.17601295 42 35
4.1561599 1.3770179 -0.33335412 35 21
4.179368 1.3838885 -0.27394706 36 25
4.2160726 1.1256883 -0.43884012 51 14
4.1920781 1.3880919 -0.21344243 43 30
4.2314744 1.1289957 -0.3784835 44 18
4.2232118 1.3975706 -0.15331179 34 38
4.245954 1.1320521 -0.31929085 43 22
4.1960983 1.5261676 -0.099732518 31 45
4.2594995 1.1356512 -0.25899941 48 26
4.1088276 1.3581729 -0.53832209 45 9
4.2254634 1.5360091 -0.038142584 25 53
4.1277857 1.3644316 -0.45237902 44 13
4.2399211 1.5404251 0.024211962 14 61
4.1430798 1.3686789 -0.39304391 32 17
4.0584116 1.4737027 -0.57508475 43 8
4.2473021 1.2633228 -0.2065019 41 31
4.2550302 1.4023226 -0.092314042 14 46
4.1601877 1.2366785 -0.51703799 46 10
4.2748399 1.4088434 -0.03039268 34 54
4.156157 1.5058993 -0.22133839 23 29
4.1774788 1.513622 -0.16006102 17 37
3.9440849 1.8362017 -0.30094433 93 23
4.0270214 1.5938343 -0.46580821 35 12
4.0422149 1.599034 -0.40673721 41 16
4.0520186 1.6020956 -0.34690878 41 20
4.0793281 1.6128972 -0.28819552 13 24
4.1064577 1.6219703 -0.22872949 32 28
4.1325498 1.631446 -0.16852172 14 36
4.1485715 1.6369363 -0.10734092 27 44
4.1774755 1.6483452 -0.045097414 51 52
4.0686784 1.7589225 -0.17581317 75 35
4.1609411 1.3625019 -0.33335412 28 21
4.1889167 1.3708416 -0.27426013 25 25
4.2151642 1.1097023 -0.43833572 44 14
4.2063923 1.3765535 -0.21392919 23 30
4.2353897 1.1142182 -0.3784835 38 18
4.2233148 1.3812689 -0.15313816 14 38
4.2450562 1.1159602 -0.3189255 42 22
4.2014003 1.5115112 -0.099732518 30 45
4.2586102 1.119511 -0.25870374 40 26
4.113543 1.343822 -0.53832209 43 9
4.2260938 1.5195588 -0.038099822 23 53
4.1325226 1.3500144 -0.45237902 38 13
4.2452726 1.5256156 0.024211962 17 61
4.1478324 1.3542086 -0.39304391 31 17
4.0588675 1.4578526 -0.5744192 43 8
4.2516861 1.2484891 -0.2065019 20 31
4.2598996 1.3874613 -0.092314042 14 46
4.1597142 1.220754 -0.51644164 44 10
4.1660891 1.4930665 -0.22159049 33 29
4.1827369 1.4990307 -0.16006102 31 37
3.9549987 1.8245153 -0.30129224 96 23
4.0279322 1.5779541 -0.46526912 30 12
4.0477715 1.5849142 -0.40673721 17 16
4.0575862 1.5879418 -0.34690878 36 20
4.0849333 1.5986478 -0.28819552 14 24
4.1120944 1.6076261 -0.22872949 14 28
4.1382194 1.6170107 -0.16852172 17 36
4.1542602 1.6224451 -0.10734092 17 44
3.9617543 1.8226062 -0.36240759 43 19
4.1832037 1.6337531 -0.045097414 42 52
4.0839767 1.7486454 -0.17621274 36 35
4.1656718 1.3479691 -0.33335412 23 21
4.193676 1.3562113 -0.27426013 14 25
4.2238283 1.0962274 -0.43884012 48 14
4.2111716 1.3618622 -0.21392919 25 30
4.2440753 1.1006732 -0.37891752 23 18
4.2328658 1.3680533 -0.15331179 17 38
4.2489252 1.1011355 -0.3189255 38 22
4.2066507 1.4968364 -0.099732518 31 45
4.1182089 1.3294549 -0.53832209 37 9
4.2313724 1.5047976 -0.038099822 30 53
4.1324773 1.3340552 -0.45185724 29 13
4.2458615 1.5091137 0.024184909 20 61
4.152534 1.3397216 -0.39304391 32 17
4.0545917 1.4403591 -0.57308793 42 8
4.2512202 1.232253 -0.20626724 20 31
4.2647166 1.372583 -0.092314042 17 46
4.16395 1.2062265 -0.51644164 40 10
4.1618619 1.4751796 -0.22108628 25 29
4.1832342 1.4827522 -0.15987954 29 37
3.9568079 1.8086222 -0.30094433 96 23
4.0287814 1.5620867 -0.46472996 29 12
4.0532794 1.5707752 -0.40673721 17 16
4.0677519 1.5755692 -0.34730887 23 20
4.0904884 1.5843791 -0.28819552 20 24
4.117681 1.5932624 -0.22872949 25 28
4.1484981 1.6043584 -0.16871279 28 36
4.1598983 1.6079341 -0.10734092 28 44
3.9680924 1.8087661 -0.36240759 95 19
4.1888809 1.619141 -0.045097414 43 52
4.2075343 1.6407199 0.016420022 11 60
4.0854568 1.7324269 -0.17601295 41 35
4.1751008 1.3349365 -0.33373687 25 21
4.1983848 1.3415643 -0.27426013 20 25
4.2276287 1.0814768 -0.43884012 43 14
4.2158999 1.3471541 -0.21392919 23 30
4.2478914 1.085852 -0.37891752 31 18
4.2376156 1.3532696 -0.15331179 29 38
4.2479105 1.0850673 -0.31856021 17 22
4.2165656 1.4838022 -0.099845089 36 45
4.127552 1.3165776 -0.53894442 17 9
4.236599 1.4900181 -0.038099822 44 53
4.146585 1.3226407 -0.45290077 41 13
4.2558203 1.4959412 0.024211962 29 61
4.1619301 1.3267291 -0.39349622 20 17
4.0642705 1.4278392 -0.57375354 40 8
4.2554955 1.2174059 -0.20626724 25 31
4.2742462 1.3592013 -0.092417888 25 46
4.1681356 1.1916841 -0.51644164 23 10
4.1622729 1.4589918 -0.22083421 34 29
4.1883845 1.468141 -0.15987954 39 37
3.9721823 1.7989208 -0.30164018 97 23
4.0388503 1.5497956 -0.46526912 25 12
3.9941347 1.8080385 -0.24234435 36 27
4.0587378 1.556617 -0.40673721 17 16
4.0732269 1.5613605 -0.34730887 23 20
4.095994 1.570091 -0.28819552 20 24
4.1232171 1.5788795 -0.22872949 33 28
4.1494074 1.5880814 -0.16852172 34 36
4.1654854 1.5934037 -0.10734092 36 44
3.9653025 1.7907968 -0.36157256 95 19
4.1945071 1.6045092 -0.045097414 49 52
4.208571 1.624222 0.016401695 42 60
4.0914788 1.7181553 -0.17601295 50 35
4.1209955 1.730563 -0.11532159 58 43
4.1844888 1.3218544 -0.33411956 29 21
4.203042 1.3269012 -0.27426013 28 25
4.2313781 1.0667131 -0.43884012 34 14
4.2205763 1.3324298 -0.21392919 32 30
4.2613187 1.0734428 -0.3797856 20 18
4.2470798 1.3399711 -0.15348542 37 38
4.2516723 1.0702327 -0.31856021 23 22
4.2217197 1.4690746 -0.099845089 42 45
4.1368546 1.303651 -0.53956676 20 9
4.2417746 1.4752206 -0.038099822 49 53
4.1511765 1.3081583 -0.45290077 33 13
4.2562933 1.4794356 0.024184909 26 61
4.1665359 1.3121932 -0.39349622 23 17
4.0785918 1.4168947 -0.57508475 38 8
4.2549114 1.2011899 -0.20603257 30 31
4.1722698 1.1771275 -0.51644164 25 10
4.1767774 1.4477235 -0.22133839 46 29
4.198205 1.4551477 -0.16006102 48 37
3.9738874 1.7829994 -0.30129224 38 23
4.0488825 1.5374529 -0.46580821 28 12
3.9958673 1.7920396 -0.2420661 95 27
4.0688004 1.544207 -0.40720689 23 16
4.083312 1.548901 -0.347709 28 20
4.1061144 1.5575536 -0.288526 31 24
4.1287036 1.564477 -0.22872949 43 28
4.1549253 1.5735877 -0.16852172 48 36
4.1756968 1.5806239 -0.10746221 46 44
3.9760766 1.7789823 -0.36199009 96 19
4.2000828 1.5898579 -0.045097414 47 52
4.2188859 1.6113061 0.016420022 42 60
4.0974512 1.703863 -0.17601295 50 35
4.1223969 1.7142469 -0.11519157 48 43
4.1843181 1.3057566 -0.33373687 40 21
4.2028832 1.3107376 -0.27394706 34 25
4.2350764 1.0519364 -0.43884012 29 14
4.2204332 1.3162038 -0.21368581 42 30
4.2602038 1.0573657 -0.37935156 25 18
4.2469597 1.3236527 -0.15331179 48 38
4.2505412 1.0541888 -0.3181949 29 22
4.2268219 1.454329 -0.099845089 46 45
4.1413803 1.2892028 -0.53956676 30 9
4.2468982 1.4604051 -0.038099822 52 53
4.1557174 1.2936602 -0.45290077 34 13
4.1710911 1.2976413 -0.39349622 28 17
4.0835128 1.402649 -0.57508475 51 8
4.1811371 1.1638848 -0.51703799 28 10
4.1865296 1.4347533 -0.22159049 49 29
4.203259 1.4404844 -0.16006102 48 37
3.9846442 1.7711459 -0.30164018 45 23
4.058877 1.5250595 -0.46634734 34 12
4.0112209 1.7821401 -0.24262258 42 27
4.078826 1.5317453 -0.40767655 31 16
4.0886936 1.534638 -0.347709 33 20
4.1068554 1.5414574 -0.28819552 45 24
4.1341391 1.5500555 -0.22872949 44 28
4.1603928 1.5590746 -0.16852172 43 36
4.1811886 1.5660384 -0.10746221 43 44
3.9822624 1.7650923 -0.36199009 97 19
4.2102885 1.5769415 -0.04514803 50 52
4.2198076 1.5948014 0.016401695 41 60
4.1079941 1.6914538 -0.17621274 45 35
4.1329775 1.7017512 -0.11532159 34 43
4.1888509 1.2911426 -0.33373687 47 21
4.2074332 1.2960587 -0.27394706 50 25
4.2435555 1.038325 -0.43934456 36 14
4.2250018 1.3014636 -0.21368581 47 30
4.2638693 1.0424883 -0.37935156 31 18
4.2515545 1.30882 -0.15331179 47 38
4.2541952 1.0393453 -0.3181949 32 22
4.231873 1.4395659 -0.099845089 45 45
4.1458549 1.2747389 -0.53956676 35 9
4.2519698 1.4455718 -0.038099822 44 53
4.1602077 1.2791462 -0.45290077 41 13
4.1755953 1.2830734 -0.39349622 34 17
4.0883842 1.3883864 -0.57508475 48 8
4.1851745 1.1492829 -0.51703799 32 10
4.1962423 1.4217328 -0.22184259 48 29
4.208262 1.4258035 -0.16006102 51 37
3.9908023 1.7572261 -0.30164018 45 23
4.0641761 1.510882 -0.46634734 49 12
4.0128493 1.7661136 -0.24234435 34 27
4.0841479 1.5174981 -0.40767655 40 16
4.0524378 1.7827216 -0.18327771 3 34
4.0940256 1.5203564 -0.347709 36 20
4.1122112 1.5271125 -0.28819552 40 24
4.1395249 1.5356153 -0.22872949 43 28
4.1658096 1.5445426 -0.16852172 43 36
3.9830821 1.7496716 -0.42226949 81 15
4.1866298 1.5514336 -0.10746221 42 44
3.9701557 1.7431571 -0.36032003 35 19
4.2110791 1.5604972 -0.045097414 47 52
4.2253489 1.5800618 0.016401695 39 60
4.2481375 1.5885867 0.079321101 38 68
4.113873 1.6771039 -0.17621274 44 35
4.1342645 1.6854255 -0.11519157 41 43
4.1933322 1.276513 -0.33373687 49 21
4.2167068 1.282815 -0.27426013 42 25
4.2519913 1.0246671 -0.43984899 48 14
4.2390766 1.2896115 -0.21417259 47 30
4.272326 1.0287604 -0.3797856 39 18
4.2513156 1.2925195 -0.15313816 49 38
4.2321334 1.4231923 -0.099732518 40 45
4.1502795 1.2602594 -0.53956676 54 9
4.2522502 1.4291285 -0.038057063 65 53
4.1646476 1.2646165 -0.45290077 47 13
4.1800485 1.2684901 -0.39349622 49 17
4.0979042 1.3756833 -0.57575035 43 8
4.1987453 1.1372566 -0.51823068 42 10
4.2011795 1.4070765 -0.22184259 41 29
4.213213 1.4111053 -0.16006102 43 37
4.001482 1.7452816 -0.30198807 39 23
4.0694251 1.4966862 -0.46634734 50 12
4.0235648 1.7540934 -0.24262258 42 27
4.0847483 1.5015147 -0.40720689 43 16
4.0993075 1.5060564 -0.347709 43 20
4.117517 1.512749 -0.28819552 43 24
4.1448598 1.5211564 -0.22872949 42 28
4.1664848 1.5282706 -0.16833065 41 36
3.9800415 1.731781 -0.42129537 42 15
4.1920199 1.5368102 -0.10746221 36 44
3.9853518 1.733268 -0.36115503 41 19
4.2165008 1.5457884 -0.045097414 42 52
4.2261491 1.5635674 0.016383369 28 60
4.2536564 1.5737482 0.079321101 49 68
4.1150699 1.6608621 -0.17601295 46 35
4.135488 1.6691115 -0.11506156 30 43
4.2025371 1.263301 -0.33411956 40 21
4.2211585 1.2680881 -0.27426013 39 25
4.2555418 1.0098187 -0.43984899 44 14
4.2339849 1.2719362 -0.21368581 40 30
4.2661953 1.0115508 -0.37891752 51 18
4.2605877 1.2791069 -0.15331179 49 38
4.2418199 1.409987 -0.099845089 38 45
4.1546531 1.2457645 -0.53956676 54 9
4.2619581 1.4158524 -0.038099822 40 53
4.1690364 1.2500714 -0.45290077 45 13
4.1844511 1.2538913 -0.39349622 43 17
4.1073842 1.3629308 -0.57641596 43 8
4.2026892 1.1225933 -0.51823068 54 10
4.2060652 1.3924031 -0.22184259 40 29
4.2181129 1.3963897 -0.16006102 35 37
4.1684895 1.657113 -0.053589661 75 51
4.0075498 1.7313031 -0.30198807 36 23
4.0792961 1.4841722 -0.46688649 45 12
4.0342445 1.7420193 -0.2429008 33 27
4.0946426 1.4889486 -0.40767655 39 16
4.064785 1.754387 -0.18327771 32 34
4.1045399 1.491738 -0.347709 43 20
4.1227727 1.4983668 -0.28819552 39 24
4.1501446 1.5066788 -0.22872949 37 28
4.1717949 1.5137175 -0.16833065 30 36
3.9906309 1.7198497 -0.42178243 32 15
4.1926599 1.5204632 -0.10734092 27 44
3.9913778 1.7193459 -0.36115503 27 19
4.2265716 1.5327659 -0.04514803 33 52
4.2362766 1.5505251 0.016401695 14 60
4.2591243 1.5588907 0.079321101 41 68
4.1254807 1.6483431 -0.17621274 33 35
4.1459298 1.6565222 -0.11519157 27 43
4.2069211 1.2486236 -0.33411956 37 21
4.2255592 1.2533458 -0.27426013 37 25
4.2590408 0.99495792 -0.43984899 49 14
4.238399 1.2571491 -0.21368581 30 30
4.2794037 0.99890906 -0.3797856 47 18
4.2602348 1.2628084 -0.15313816 48 38
4.2514648 1.3967314 -0.09995766 34 45
4.1542192 1.2298479 -0.53894442 50 9
4.2621236 1.3994075 -0.038057063 37 53
4.1733747 1.2355112 -0.45290077 45 13
4.1888022 1.2392772 -0.39349622 41 17
4.1121168 1.3485849 -0.57641596 43 8
4.2017808 1.1066549 -0.51763427 45 10
4.2061539 1.3761604 -0.22159049 34 29
4.2229619 1.3816574 -0.16006102 23 37
4.1788998 1.6443845 -0.053649876 43 51
4.0089846 1.7153391 -0.30164018 32 23
4.0797749 1.46824 -0.46634734 48 12
4.0403013 1.7279266 -0.2429008 33 27
4.0951309 1.4729613 -0.40720689 20 16
4.0754766 1.7421541 -0.18348622 45 34
4.1097221 1.4774015 -0.347709 39 20
4.1279774 1.4839666 -0.28819552 14 24
4.160078 1.4938711 -0.2289903 14 28
4.177053 1.4991461 -0.16833065 17 36
4.0011859 1.7078657 -0.42226949 35 15
4.1979418 1.5058188 -0.10734092 14 44
3.997355 1.705403 -0.36115503 36 19
4.2318959 1.518003 -0.04514803 25 52
4.241663 1.5357282 0.016401695 17 60
4.1312094 1.6339324 -0.17621274 25 35
4.1470394 1.6401998 -0.11506156 29 43
4.2112541 1.2339311 -0.33411956 31 21
4.2299089 1.2385882 -0.27426013 33 25
4.2576389 0.97897452 -0.43934456 48 14
4.2427616 1.2423466 -0.21368581 14 30
4.2731528 0.98174262 -0.37891752 43 18
4.2515602 1.3803394 -0.099845089 17 45
4.1584868 1.2153395 -0.53894442 49 9
4.1776619 1.2209358 -0.45290077 38 13
4.1931028 1.224648 -0.39349622 29 17
4.1167989 1.3342228 -0.57641596 42 8
4.2056179 1.0919811 -0.51763427 43 10
4.2156835 1.3630055 -0.22184259 17 29
4.2325139 1.3684448 -0.1602425 25 37
4.1846147 1.6297873 -0.053649876 44 51
4.0149479 1.7013346 -0.30164018 31 23
4.0895581 1.4556575 -0.46688649 32 12
4.0509038 1.7157627 -0.24317905 35 27
4.1049376 1.4603267 -0.40767655 17 16
4.0815325 1.7279174 -0.18348622 45 34
4.1148539 1.4630468 -0.347709 17 20
4.1295109 1.7482632 -0.12347554 5 42
4.133132 1.4695482 -0.28819552 13 24
4.1558576 1.4759972 -0.2284687 17 28
4.1869688 1.4862282 -0.16852172 20 36
3.9796288 1.6822462 -0.4193472 32 15
4.2031722 1.4911561 -0.10734092 20 44
4.0032835 1.6914392 -0.36115503 25 19
4.2324567 1.5015494 -0.045097414 32 52
4.2469983 1.5209128 0.016401695 23 60
4.136888 1.6195017 -0.17621274 28 35
4.1527395 1.6257139 -0.11506156 32 43
4.2155356 1.2192237 -0.33411956 23 21
4.2390003 1.2251992 -0.27457321 20 25
4.2610302 0.96410656 -0.43934456 49 14
4.256669 1.230299 -0.21417259 17 30
4.286273 0.96900916 -0.3797856 41 18
4.2515922 1.3639637 -0.099732518 27 45
4.1674709 1.2021896 -0.53956676 45 9
4.1818986 1.2063457 -0.45290077 29 13
4.1973519 1.2100039 -0.39349622 17 17
4.1214314 1.3198444 -0.57641596 41 8
4.2142143 1.078522 -0.51823068 30 10
4.2204156 1.3482817 -0.22184259 20 29
4.2420249 1.3551822 -0.16042396 36 37
4.1902776 1.6151705 -0.053649876 49 51
4.0300584 1.691175 -0.30233598 26 23
4.0946145 1.4413733 -0.46688649 26 12
4.2188449 1.6253476 0.0086105764 35 59
4.0568686 1.701612 -0.24317905 39 27
4.1100101 1.4459888 -0.40767655 20 16
4.0875397 1.7136596 -0.18348622 49 34
4.1246376 1.4503282 -0.34810916 20 20
4.138237 1.455112 -0.28819552 23 24
4.1562729 1.4598262 -0.22820789 17 28
4.187417 1.4699484 -0.16833065 30 36
3.999244 1.6741177 -0.42080832 29 15
4.213069 1.4781307 -0.10746221 28 44
4.0137587 1.6793809 -0.36157256 26 19
4.2376728 1.4867661 -0.045097414 43 52
4.2522807 1.5060787 0.016401695 25 60
4.1425157 1.6050515 -0.17621274 32 35
4.1630492 1.613016 -0.11519157 29 43
4.2245603 1.2058678 -0.33450228 26 21
4.2432513 1.2103949 -0.27457321 28 25
4.2643695 0.94922692 -0.43934456 49 14
4.2657404 1.216801 -0.21441594 25 30
4.2658582 1.3521343 -0.09995766 32 45
4.1668701 1.1862783 -0.53894442 32 9
4.1908674 1.1931006 -0.45342255 28 13
4.2063398 1.1967058 -0.3939485 23 17
4.1260133 1.3054497 -0.57641596 40 8
4.2179532 1.0638051 -0.51823068 23 10
4.2250967 1.3335415 -0.22184259 29 29
4.2419643 1.3388631 -0.1602425 49 37
4.2005615 1.6023175 -0.053710092 51 51
4.0359368 1.6770972 -0.30233598 33 23
4.1043148 1.4287064 -0.46742561 29 12
4.219821 1.6088283 0.0086009772 37 59
4.0673923 1.6893584 -0.24345729 38 27
4.1197333 1.4332696 -0.40814623 23 16
4.0934963 1.699381 -0.18348622 48 34
4.1296749 1.4359217 -0.34810916 24 20
4.1370006 1.7174722 -0.1233368 60 42
4.1480026 1.4422969 -0.288526 31 24
4.1707768 1.4485869 -0.22872949 31 28
4.1972423 1.4569618 -0.16852172 44 36
4.0050631 1.6601475 -0.42080832 39 15
4.2182026 1.4634153 -0.10746221 41 44
4.0195966 1.6653599 -0.36157256 32 19
4.2428365 1.4719647 -0.045097414 43 52
4.2575126 1.4912262 0.016401695 30 60
4.1480932 1.5905817 -0.17621274 39 35
4.1686544 1.5984744 -0.11519157 37 43
4.2239442 1.1897641 -0.33411956 28 21
4.2474508 1.1955758 -0.27457321 33 25
4.2627969 0.93327594 -0.43884012 49 14
4.2603469 1.1992007 -0.21392919 28 30
4.2657814 1.3357424 -0.099845089 33 45
4.1709857 1.1717262 -0.53894442 23 9
4.1950064 1.1784645 -0.45342255 29 13
4.2104917 1.1820157 -0.3939485 28 17
4.1352754 1.2925173 -0.57708162 37 8
4.2216411 1.0490751 -0.51823068 25 10
4.2297258 1.3187852 -0.22184259 40 29
4.2466121 1.3240478 -0.1602425 50 37
4.2061291 1.5876451 -0.053710092 52 51
4.0417666 1.662999 -0.30233598 37 23
4.1092772 1.414371 -0.46742561 37 12
4.2254109 1.5940884 0.0086009772 36 59
4.0732646 1.67515 -0.24345729 39 27
4.1294184 1.4205002 -0.40861592 29 16
4.1040225 1.6869837 -0.18369472 45 34
4.1346617 1.4214976 -0.34810916 37 20
4.1198626 1.693506 -0.12264312 43 42
4.1482944 1.4261863 -0.28819552 41 24
4.1805301 1.4356418 -0.2289903 39 28
4.2023029 1.4423016 -0.16852172 44 36
4.0154362 1.6480495 -0.42129537 38 15
4.2232852 1.4486822 -0.10746221 43 44
4.029994 1.6532128 -0.36199009 37 19
4.2479486 1.4571456 -0.045097414 46 52
4.267416 1.4779927 0.016420022 37 60
4.1489496 1.5743182 -0.17601295 44 35
4.1742091 1.5839133 -0.11519157 39 43
4.2328758 1.1763456 -0.33450228 34 21
4.241981 1.1780751 -0.27394706 49 25
4.2660284 0.91839033 -0.43884012 43 14
4.2789435 1.1883258 -0.21465932 32 30
4.1750503 1.1571596 -0.53894442 33 9
4.1990943 1.1638141 -0.45342255 36 13
4.2193913 1.1686386 -0.39440081 35 17
4.1444974 1.2795358 -0.57774717 51 8
4.2252774 1.0343326 -0.51823068 31 10
4.262939 1.3128276 -0.22335513 48 29
4.2512078 1.3092164 -0.1602425 49 37
4.2116456 1.5729532 -0.053710092 52 51
4.0475469 1.6488804 -0.30233598 39 23
4.1141887 1.4000183 -0.46742561 37 12
4.2309499 1.5793294 0.0086009772 41 59
4.0790873 1.6609217 -0.24345729 42 27
4.1343517 1.4060773 -0.40861592 37 16
4.2819414 1.5983843 0.072024092 38 67
4.1098862 1.6726477 -0.18369472 45 34
4.1395988 1.4070562 -0.34810916 34 20
4.1211205 1.6772277 -0.12250438 39 42
4.1579709 1.4133034 -0.288526 48 24
4.1855159 1.4210403 -0.2289903 46 28
4.2025805 1.4260181 -0.16833065 43 36
4.0257735 1.6358991 -0.42178243 42 15
4.2283158 1.4339312 -0.10746221 41 44
4.0403547 1.641013 -0.36240759 39 19
4.2530088 1.4423085 -0.045097414 47 52
4.1590962 1.561584 -0.17621274 46 35
4.1797123 1.5693331 -0.11519157 40 43
4.2321477 1.1602466 -0.33411956 45 21
4.2460675 1.1632607 -0.27394706 49 25
4.1838498 1.1438854 -0.53956676 47 9
4.2079282 1.1504588 -0.45394433 48 13
4.2234449 1.153903 -0.39440081 43 17
4.1489382 1.265061 -0.57774717 48 8
4.2288623 1.0195773 -0.51823068 26 10
4.2674956 1.2979391 -0.22335513 48 29
4.2557521 1.2943689 -0.1602425 68 37
4.2171102 1.5582423 -0.053710092 50 51
4.0579023 1.6366104 -0.30268389 44 23
4.1237617 1.3872341 -0.46796471 40 12
4.2364368 1.5645509 0.0086009772 38 59
4.0848603 1.6466727 -0.24345729 43 27
4.1345162 1.3900499 -0.40814623 50 16
4.2640491 1.5747595 0.071627043 69 67
4.1110673 1.6564217 -0.18348622 39 34
4.144485 1.3925979 -0.34810916 43 20
4.1223154 1.6609615 -0.12236565 41 42
4.1628785 1.3987808 -0.288526 44 24
4.1904511 1.4064214 -0.2289903 41 28
4.2075324 1.4113398 -0.16833065 43 36
4.0314593 1.6218367 -0.42178243 47 15
4.2332954 1.419163 -0.10746221 37 44
4.0460582 1.6268995 -0.36240759 43 19
4.2580175 1.427454 -0.045097414 49 52
4.1645222 1.5470566 -0.17621274 46 35
4.1851649 1.5547335 -0.11519157 41 43
4.1527314 1.6825144 -0.061286785 100 50
4.0524826 1.7815739 -0.19094147 97 33
4.2409844 1.1467662 -0.33450228 47 21
4.2501016 1.1484319 -0.27394706 52 25
4.1878171 1.1292741 -0.53956676 50 9
4.2119184 1.1357635 -0.45394433 49 13
4.2226386 1.1378596 -0.3939485 47 17
4.1533289 1.2505707 -0.57774717 43 8
4.2372255 1.0059533 -0.51882702 55 10
4.2480865 1.2758558 -0.22209466 33 29
4.2602444 1.2795056 -0.1602425 67 37
4.2225237 1.5435123 -0.053710092 39 51
4.0589595 1.6205833 -0.30233598 37 23
4.1285787 1.3728309 -0.46796471 49 12
4.2324805 1.5463184 0.008581778 14 59
4.0859475 1.6305506 -0.24317905 37 27
4.1393433 1.3756093 -0.40814623 44 16
4.2695198 1.5598656 0.071627043 64 67
4.1214628 1.6439148 -0.18369472 35 34
4.1493211 1.3781224 -0.34810916 42 20
4.1327291 1.6484163 -0.12250438 24 42
4.1677361 1.3842411 -0.288526 43 24
4.2000732 1.3933581 -0.22925112 38 28
4.2171755 1.3982171 -0.16852172 43 36
4.037096 1.6077543 -0.42178243 41 15
4.2429686 1.4059502 -0.10758351 38 44
4.0470848 1.610921 -0.36199009 38 19
4.2582288 1.411009 -0.045046799 42 52
4.1698966 1.5325102 -0.17621274 41 35
4.1905661 1.540115 -0.11519157 28 43
4.1585789 1.6680084 -0.061286785 97 50
4.0540981 1.7654189 -0.19072424 35 33
4.2401443 1.1306727 -0.33411956 47 21
4.2637296 1.1361556 -0.27457321 54 25
4.1917338 1.1146491 -0.53956676 49 9
4.2158575 1.1210543 -0.45394433 50 13
4.2265849 1.1231128 -0.3939485 49 17
4.1576691 1.2360653 -0.57774717 42 8
4.235877 0.99002963 -0.51823068 54 10
4.2477264 1.2596004 -0.22184259 39 29
4.2598934 1.2632067 -0.16006102 40 37
4.2325869 1.5304652 -0.0537703 31 51
4.0692291 1.6082411 -0.30268389 40 23
4.1286244 1.3568586 -0.46742561 49 12
4.2425547 1.5332361 0.0085913772 14 59
4.0962567 1.6181152 -0.24345729 34 27
4.1441202 1.3611522 -0.40814623 41 16
4.2749395 1.5449529 0.071627043 54 67
4.1225314 1.6276808 -0.18348622 29 34
4.1541066 1.3636302 -0.34810916 34 20
4.1384583 1.6339803 -0.12250438 18 42
4.1725426 1.3696846 -0.288526 40 24
4.2001672 1.3771325 -0.2289903 14 28
4.2220302 1.3834877 -0.16852172 32 36
4.0426836 1.5936524 -0.42178243 36 15
4.2478499 1.3911309 -0.10758351 14 44
4.0526834 1.5967842 -0.36199009 34 19
4.267879 1.3976929 -0.045097414 43 52
4.170526 1.5162364 -0.17601295 35 35
4.1959167 1.5254779 -0.11519157 32 43
4.1690216 1.6553301 -0.061355725 47 50
4.1972909 1.666574 0.00078190747 14 58
4.0648212 1.753239 -0.19094147 45 33
4.0714631 1.7561104 -0.12976448 3 41
4.2440653 1.115865 -0.33411956 43 21
4.2483616 1.1162003 -0.27332085 53 25
4.1955991 1.1000103 -0.53956676 51 9
4.2197452 1.1063313 -0.45394433 45 13
4.2352972 1.1096127 -0.39440081 46 17
4.1572037 1.2201499 -0.57708162 42 8
4.2520971 1.2447653 -0.22184259 17 29
4.2331967 1.5139961 -0.053710092 27 51
4.0748181 1.5940269 -0.30268389 34 23
4.1333351 1.3424387 -0.46742561 39 12
4.2478805 1.5184175 0.0085913772 17 59
4.1018796 1.6038069 -0.24345729 32 27
4.1488461 1.346678 -0.40814623 34 16
4.1281881 1.6132805 -0.18348622 35 34
4.1588411 1.3491213 -0.34810916 23 20
4.1441369 1.6195245 -0.12250438 19 42
4.1772981 1.3551114 -0.288526 29 24
4.2096987 1.3640025 -0.22925112 21 28
4.2315874 1.3702815 -0.16871279 28 36
4.0435872 1.5777194 -0.42129537 34 15
4.2479248 1.374755 -0.10746221 14 44
4.0628734 1.5844409 -0.36240759 35 19
4.2679758 1.3812468 -0.045046799 36 52
4.1804943 1.5033618 -0.17621274 35 35
4.2012162 1.5108222 -0.11519157 31 43
4.1747746 1.6407673 -0.061355725 42 50
4.1984305 1.6500808 0.00078103482 100 58
4.0709167 1.7390395 -0.19094147 53 33
4.1097288 1.7556585 -0.1307967 106 41
4.2527609 1.1022927 -0.33450228 36 21
4.2667265 1.1051123 -0.27426013 49 25
4.1994133 1.0853581 -0.53956676 50 9
4.2235813 1.0915948 -0.45394433 46 13
4.2439661 1.0960654 -0.39485309 39 17
4.161437 1.2056311 -0.57708162 41 8
4.2564168 1.2299153 -0.22184259 17 29
4.2384558 1.4992104 -0.053710092 31 51
4.0803576 1.5797935 -0.30268389 23 23
4.1379962 1.3280026 -0.46742561 39 12
4.2531548 1.5035803 0.0085913772 17 59
4.1074533 1.5894787 -0.24345729 27 27
4.1487823 1.3306668 -0.40767655 17 16
4.1384516 1.6006656 -0.18369472 35 34
4.1635246 1.334596 -0.34810916 21 20
4.1497645 1.6050489 -0.12250438 25 42
4.1820025 1.3405216 -0.288526 17 24
4.2191896 1.3508227 -0.22951193 17 28
4.2363448 1.3555022 -0.16871279 29 36
4.0490699 1.5635951 -0.42129537 35 15
4.2526979 1.3599186 -0.10746221 20 44
4.0683794 1.5702491 -0.36240759 25 19
3.985285 1.6884035 -0.48903847 64 11
4.1810098 1.4870838 -0.17601295 30 35
4.2064643 1.4961479 -0.11519157 25 43
4.1804767 1.6261846 -0.061355725 41 50
4.2088237 1.6372309 0.00078190747 97 58
4.076962 1.7248187 -0.19094147 54 33
4.0882249 1.7295949 -0.12991193 96 41
4.2565827 1.087441 -0.33450228 35 21
4.2079844 1.0719157 -0.54018909 48 9
4.227366 1.0768453 -0.45394433 25 13
4.247766 1.0812445 -0.39485309 25 17
4.1703844 1.1924592 -0.57774717 40 8
4.2654862 1.2164187 -0.22209466 20 29
4.2436628 1.4844062 -0.053710092 40 51
4.0905042 1.5673285 -0.30303183 27 23
4.1473441 1.3150531 -0.46796471 17 12
4.2583771 1.4887248 0.0085913772 27 59
4.1129766 1.5751314 -0.24345729 36 27
4.1628919 1.3191855 -0.40861592 17 16
4.1440139 1.58621 -0.18369472 41 34
4.1729097 1.32156 -0.34850928 20 20
4.1553416 1.5905539 -0.12250438 36 42
4.1914129 1.3274225 -0.28885651 25 24
4.2238793 1.3360866 -0.22951193 20 28
4.2410502 1.3407063 -0.16871279 41 36
4.0498557 1.5476724 -0.42080832 26 15
4.2574186 1.3450656 -0.10746221 23 44
4.0691824 1.5542578 -0.36199009 34 19
3.9957335 1.6764077 -0.48960447 96 11
4.1861749 1.4724804 -0.17601295 34 35
4.2163758 1.4831157 -0.11532159 29 43
4.1861277 1.6115822 -0.061355725 45 50
4.2051826 1.6189311 0.00078016211 45 58
4.0829582 1.7105769 -0.19094147 54 33
4.1080618 1.7211192 -0.13035432 40 41
4.2603531 1.0725762 -0.33450228 20 21
4.2068882 1.0560145 -0.53956676 42 9
4.2310991 1.0620824 -0.45394433 17 13
4.2515144 1.0664103 -0.39485309 25 17
4.1649828 1.1752044 -0.57641596 28 8
4.2456703 1.1947615 -0.22083421 23 29
4.2488189 1.469584 -0.053710092 47 51
4.0959501 1.5530404 -0.30303183 33 23
4.1566529 1.3020546 -0.46850386 25 12
4.2635479 1.4738513 0.0085913772 28 59
4.123117 1.5625368 -0.24373554 45 27
4.1674714 1.3046463 -0.40861592 28 16
4.1448555 1.5699627 -0.18348622 47 34
4.1822538 1.3084744 -0.34890941 29 20
4.1655416 1.5778124 -0.12264312 38 42
4.1960211 1.3127836 -0.28885651 37 24
4.2237511 1.3198445 -0.22925112 28 28
4.2457047 1.3258941 -0.16871279 43 36
4.0645404 1.5370524 -0.42178243 31 15
4.2620883 1.3301963 -0.10746221 28 44
4.0839024 1.543573 -0.36282513 33 19
3.9878027 1.6567202 -0.48790646 96 11
4.1960077 1.4595021 -0.17621274 43 35
4.2215271 1.4683888 -0.11532159 36 43
4.1963983 1.5987427 -0.061424665 45 50
4.2108078 1.6042423 0.00078016211 43 58
4.0889039 1.6963143 -0.19094147 56 33
4.1278882 1.712526 -0.1307967 39 41
4.2785883 1.0612936 -0.33565047 25 21
4.2105489 1.0413233 -0.53956676 33 9
4.2347803 1.0473067 -0.45394433 29 13
4.2552109 1.0515633 -0.39485309 31 17
4.1738343 1.1619874 -0.57708162 31 8
4.2690625 1.1852753 -0.22184259 30 29
4.2539229 1.454744 -0.053710092 48 51
4.101346 1.5387334 -0.30303183 38 23
4.1611724 1.2875373 -0.46850386 34 12
4.2733979 1.4605784 0.0086009772 34 59
4.1285462 1.548135 -0.24373554 43 27
4.1719999 1.290091 -0.40861592 35 16
4.1503105 1.5554848 -0.18348622 46 34
4.1820345 1.2923956 -0.34850928 34 20
4.1710243 1.5632623 -0.12264312 40 42
4.2053447 1.2996023 -0.28918701 46 24
4.2283325 1.3050929 -0.22925112 38 28
4.245533 1.3095925 -0.16852172 43 36
4.0745406 1.5246019 -0.42226949 37 15
4.2619286 1.3138375 -0.10734092 34 44
4.0892658 1.5293082 -0.36282513 38 19
3.9981546 1.644684 -0.48847249 96 11
4.2058005 1.4464728 -0.17641252 46 35
4.2266273 1.4536439 -0.11532159 42 43
4.2019539 1.5840849 -0.061424665 46 50
4.2163825 1.589534 0.00078016211 43 58
4.2253189 1.5929091 0.063332394 101 66
4.0994191 1.683933 -0.1911587 55 33
4.115355 1.6904948 -0.13020685 37 41
4.2725806 1.0439891 -0.33488503 28 21
4.2141576 1.0266194 -0.53956676 40 9
4.23841 1.0325181 -0.45394433 31 13
4.2588553 1.0367035 -0.39485309 35 17
4.1778646 1.1474109 -0.57708162 41 8
4.2542386 1.438283 -0.053649876 46 51
4.1066928 1.5244075 -0.30303183 40 23
4.1656418 1.2730043 -0.46850386 43 12
4.133925 1.5337143 -0.24373554 43 27
4.1764779 1.2755202 -0.40861592 48 16
4.1603975 1.5427277 -0.18369472 45 34
4.1865201 1.2777897 -0.34850928 43 20
4.1764555 1.5486933 -0.12264312 39 42
4.2050838 1.2834581 -0.28885651 46 24
4.1630864 1.6830267 -0.069199272 96 49
4.2328625 1.2903253 -0.22925112 45 28
4.2500782 1.2947649 -0.16852172 46 36
4.0798378 1.5103699 -0.42226949 41 15
4.0945787 1.5150247 -0.36282513 40 19
4.0084701 1.6325955 -0.48903847 96 11
4.2060943 1.4301732 -0.17621274 49 35
4.2316751 1.4388815 -0.11532159 40 43
4.202774 1.5676575 -0.061355725 45 50
4.2219048 1.5748065 0.00078016211 34 58
4.2449026 1.5834004 0.063544445 37 66
4.1052728 1.6696131 -0.1911587 54 33
4.1166034 1.6742325 -0.13005939 41 41
4.2907405 1.0325625 -0.3360332 31 21
4.2177157 1.011903 -0.53956676 49 9
4.2468247 1.0188754 -0.45446613 38 13
4.2624488 1.0218309 -0.39485309 39 17
4.1866274 1.1341156 -0.57774717 48 8
4.259233 1.4234241 -0.053649876 51 51
4.1119885 1.5100633 -0.30303183 45 23
4.1700597 1.2584558 -0.46850386 49 12
4.1392536 1.5192747 -0.24373554 40 27
4.1809044 1.2609339 -0.40861592 47 16
4.1657572 1.5281957 -0.18369472 41 34
4.1909552 1.2631682 -0.34850928 43 20
4.1818361 1.5341052 -0.12264312 29 42
4.2047615 1.2673314 -0.288526 43 24
4.1596556 1.6647614 -0.069043942 99 49
4.2373409 1.275542 -0.22925112 40 28
4.2545724 1.2799214 -0.16852172 48 36
4.0850854 1.4961194 -0.42226949 46 15
4.0998421 1.5007228 -0.36282513 45 19
4.0049329 1.6148698 -0.48790646 97 11
4.2110615 1.4154824 -0.17621274 47 35
4.231935 1.4225072 -0.11519157 40 43
4.208221 1.5529776 -0.061355725 42 50
4.2226868 1.5583258 0.00077928946 17 58
4.2457147 1.5668395 0.063473761 40 66
4.1064434 1.6534032 -0.19094147 47 33
4.1224222 1.6598526 -0.13005939 41 41
4.2212219 0.99717432 -0.53956676 44 9
4.2503557 1.004045 -0.45446613 49 13
4.2611427 1.0058039 -0.39440081 50 17
4.1953487 1.1207728 -0.57841277 53 8
4.2641764 1.408548 -0.053649876 41 51
4.1172347 1.4957006 -0.30303183 35 23
4.1744275 1.2438918 -0.46850386 49 12
4.1398396 1.5031101 -0.24345729 35 27
4.1852803 1.2463322 -0.40861592 46 16
4.1663713 1.5119385 -0.18348622 36 34
4.1953387 1.2485313 -0.34850928 41 20
4.1824679 1.5177908 -0.12250438 18 42
4.2139411 1.25407 -0.28885651 42 24
4.1747346 1.6539221 -0.069199272 40 49
4.2417674 1.2607431 -0.22925112 40 28
4.2590141 1.2650623 -0.16852172 45 36
4.0902829 1.4818506 -0.42226949 40 15
4.1050558 1.4864025 -0.36282513 38 19
4.0059338 1.5990344 -0.48734042 35 11
4.2159767 1.4007742 -0.17621274 44 35
4.2416177 1.4093039 -0.11532159 31 43
4.2183113 1.539996 -0.061424665 36 50
4.2281003 1.5435762 0.00077928946 14 58
4.2511578 1.5520096 0.063473761 34 66
4.1168284 1.6409124 -0.1911587 41 33
4.128191 1.6454526 -0.13005939 23 41
4.2586784 0.990327 -0.45498791 49 13
4.2694783 0.9920488 -0.39485309 52 17
4.199235 1.1061214 -0.57841277 48 8
4.2643147 1.3921014 -0.053589661 37 51
4.1224308 1.4813197 -0.30303183 31 23
4.173975 1.2279093 -0.46796471 46 12
4.1450615 1.4886502 -0.24345729 26 27
4.1943817 1.2331198 -0.4090856 43 16
4.1716237 1.497386 -0.18348622 29 34
4.204453 1.2352849 -0.34890941 32 20
4.1877408 1.5031821 -0.12250438 17 42
4.2182932 1.2393531 -0.28885651 43 24
4.171176 1.6356813 -0.069043942 50 49
4.2509336 1.2473354 -0.22951193 30 28
4.2091856 1.649775 -0.0070456485 108 57
4.2586098 1.2487816 -0.16833065 43 36
4.0907469 1.4658824 -0.42178243 43 15
4.1055293 1.4703811 -0.36240759 36 19
4.0114908 1.5850414 -0.48734042 36 11
4.2255869 1.3876096 -0.17641252 43 35
4.2465115 1.3944893 -0.11532159 30 43
4.2189598 1.523561 -0.061355725 30 50
4.2334628 1.5288081 0.00077928946 17 58
4.2753549 1.5439645 0.063756496 28 66
4.1225314 1.626532 -0.1911587 33 33
4.1292624 1.6291943 -0.12991193 25 41
4.2475662 0.97213244 -0.45342255 51 13
4.2680612 0.97603136 -0.39440081 54 17
4.2030706 1.0914567 -0.57841277 45 8
4.2691479 1.3772076 -0.053589661 46 51
4.1275768 1.4669206 -0.30303183 23 23
4.178236 1.2133318 -0.46796471 41 12
4.1502328 1.4741721 -0.24345729 20 27
4.1986604 1.2184712 -0.4090856 40 16
4.1721182 1.4811407 -0.18327771 30 34
4.2087393 1.220601 -0.34890941 14 20
4.1929626 1.4885548 -0.12250438 22 42
4.2225938 1.2246208 -0.28885651 39 24
4.1768608 1.6211112 -0.069043942 42 49
4.2504659 1.2310995 -0.22925112 20 28
4.2055984 1.6314477 -0.0070299385 98 57
4.2629428 1.2339085 -0.16833065 41 36
4.1005282 1.4532592 -0.42226949 25 15
4.1153331 1.4577078 -0.36282513 21 19
4.0123739 1.5692155 -0.48677438 38 11
4.2304044 1.3728513 -0.17641252 28 35
4.2513528 1.3796579 -0.11532159 17 43
4.2242527 1.5088248 -0.061355725 30 50
4.2387733 1.5140213 0.00077928946 22 58
4.1281838 1.6121318 -0.1911587 33 33
4.1395779 1.6165925 -0.13005939 21 41
4.2509332 0.95729971 -0.45342255 54 13
4.2714415 0.96112704 -0.39440081 51 17
4.2116561 1.0780067 -0.57907838 45 8
4.1326718 1.4525037 -0.30303183 24 23
4.1824455 1.1987396 -0.46796471 20 12
4.1553531 1.4596761 -0.24345729 26 27
4.1981025 1.2024364 -0.40861592 28 16
4.1772628 1.4665685 -0.18327771 35 34
4.2129741 1.2059023 -0.34890941 20 20
4.202848 1.4755683 -0.12264312 27 42
4.2316389 1.2112473 -0.28918701 23 24
4.1824937 1.6065214 -0.069043942 49 49
4.2595382 1.2176282 -0.22951193 17 28
4.2159338 1.6185534 -0.0070377938 34 57
4.1055756 1.4389369 -0.42226949 26 15
4.1250978 1.4449837 -0.36324266 36 19
4.017827 1.5552002 -0.48677438 29 11
4.2351704 1.3580761 -0.17641252 30 35
4.2561426 1.3648094 -0.11532159 30 43
4.2294931 1.4940703 -0.061355725 41 50
4.2440324 1.499216 0.00077928946 27 58
4.1337857 1.5977119 -0.1911587 41 33
4.1451955 1.6021328 -0.13005939 27 41
4.2591043 0.94352907 -0.45394433 51 13
4.2747707 0.9462111 -0.39440081 46 17
4.2201986 1.0645102 -0.57974404 42 8
4.1377168 1.4380692 -0.30303183 27 23
4.1913881 1.1854864 -0.46850386 27 12
4.1604228 1.4451624 -0.24345729 36 27
4.2070646 1.1891296 -0.4090856 28 16
4.1917934 1.4552606 -0.18369472 46 34
4.2219539 1.1925445 -0.3493095 23 20
4.207973 1.4608886 -0.12264312 36 42
4.2358413 1.1964688 -0.28918701 28 24
4.188076 1.5919118 -0.069043942 53 49
4.263763 1.2027522 -0.22951193 20 28
4.2122126 1.6002679 -0.0070220837 43 57
4.115274 1.4262292 -0.42275649 26 15
4.2399311 1.6108247 0.055761844 40 65
