# .PCD v0.7 - Point Cloud Data file format
VERSION 0.7
FIELDS x y z intensity ring
SIZE 4 4 4 4 2
TYPE F F F F U
COUNT 1 1 1 1 1
WIDTH 1201
HEIGHT 1
VIEWPOINT 0 0 0 1 0 0 0
POINTS 1201
DATA ascii
3.9616275 -0.27970952 -0.27450299 42 23
3.8906035 -0.50584197 -0.42159957 29 12
4.0407963 -0.40565374 0.0077274404 36 59
3.9849389 -0.28203857 -0.22064187 41 27
3.9058495 -0.5085153 -0.36822397 23 16
4.0402989 -0.40560398 0.063924365 46 67
4.0075116 -0.2843239 -0.16618013 43 34
3.920366 -0.5110991 -0.3144986 23 20
4.0144248 -0.28480974 -0.11071178 44 42
3.9391837 -0.51354975 -0.26076406 25 24
3.9521363 -0.51663959 -0.20629992 20 28
3.9644287 -0.51894861 -0.15151669 38 36
3.9323506 -0.28111106 -0.38233164 39 15
3.9858775 -0.52246094 -0.096667476 20 44
3.9422164 -0.28250116 -0.32817093 43 19
4.0017099 -0.52453405 -0.040491506 29 52
4.0183039 -0.51458436 0.01471571 29 60
4.0077949 -0.51323998 0.070595779 23 68
3.9936266 -0.39319456 -0.159031 42 35
4.0053992 -0.39434892 -0.10375043 28 43
4.0659971 -0.28059015 -0.055702727 99 50
3.9990578 -0.15877646 -0.17247728 60 33
3.8689861 -0.74271107 -0.29967424 29 21
3.8823912 -0.74599278 -0.24576963 36 25
3.7908278 -0.9624027 -0.39293846 60 14
3.8902898 -0.74751383 -0.19129504 20 30
3.8149734 -0.9692663 -0.33985385 45 18
3.9071264 -0.75146323 -0.13699095 37 38
3.953481 -0.6411972 -0.089376554 28 45
3.8303678 -0.73805463 -0.48480105 23 9
3.9690239 -0.64443111 -0.034080312 29 53
3.8441088 -0.74070823 -0.40698457 32 13
3.8540769 -0.7433309 -0.35324201 25 17
3.841006 -0.62500423 -0.51784253 29 8
3.80864 -0.85417122 -0.46455893 51 10
3.9142075 -0.63973123 -0.19839785 20 29
3.9363124 -0.64334708 -0.14354679 36 37
3.8409047 -0.51302713 -0.56345284 32 7
4.0242262 -0.41748023 -0.048290908 39 51
3.9606266 -0.29353648 -0.27450299 47 23
3.8888142 -0.51941961 -0.42159957 33 12
4.0393558 -0.41975629 0.0077274404 35 59
3.9789515 -0.29558042 -0.22036362 45 27
3.9040508 -0.52214617 -0.36822397 29 16
4.0338855 -0.41919005 0.063844949 61 67
4.0064945 -0.29831102 -0.16618013 49 34
3.9185584 -0.52478063 -0.3144986 28 20
4.0134058 -0.29882097 -0.11071178 44 42
3.9324217 -0.52663535 -0.26043355 33 24
3.9503088 -0.53043199 -0.20629992 25 28
3.9675453 -0.53344905 -0.15170777 46 36
3.926383 -0.29446706 -0.38184458 42 15
3.9840295 -0.53637111 -0.096667476 28 44
3.9461753 -0.29663047 -0.32858846 46 19
3.9998548 -0.53849947 -0.040491506 36 52
4.0115256 -0.52795601 0.014697384 41 60
4.0010219 -0.52657503 0.070507646 25 68
3.9922299 -0.40713251 -0.159031 48 35
4.0039988 -0.40832794 -0.10375043 34 43
4.0450463 -0.2933481 -0.055426974 41 50
4.0134516 -0.17336757 -0.17312895 40 33
3.8663697 -0.75621188 -0.29967424 25 21
3.8797636 -0.75954032 -0.24576963 30 25
3.7874453 -0.97562933 -0.39293846 49 14
3.8876569 -0.76108891 -0.19129504 25 30
3.8019221 -0.98008102 -0.33898577 41 18
3.9044795 -0.76509708 -0.13699095 39 38
3.9512188 -0.65499353 -0.089376554 23 45
3.8277683 -0.75142062 -0.48480105 25 9
3.961818 -0.65746248 -0.034037553 25 53
3.8463793 -0.75508207 -0.40750635 41 13
3.8514585 -0.75677955 -0.35324201 28 17
3.8388009 -0.63840806 -0.51784253 33 8
3.7959564 -0.86524743 -0.46336621 48 10
3.9218011 -0.65503705 -0.19890204 20 29
3.9340429 -0.65708345 -0.14354679 47 37
3.843992 -0.52710271 -0.56417894 40 7
4.0227442 -0.43152487 -0.048290908 41 51
3.9595778 -0.30735984 -0.27450299 48 23
3.8869774 -0.53299099 -0.42159957 48 12
4.0378661 -0.43385369 0.0077274404 35 59
3.9778953 -0.30946773 -0.22036362 38 27
3.9022043 -0.53577065 -0.36822397 36 16
4.0323977 -0.43326837 0.063844949 34 67
4.0054288 -0.31229445 -0.16618013 46 34
3.9117649 -0.5377776 -0.31409848 34 20
4.0123386 -0.31282854 -0.11071178 43 42
3.925617 -0.53968 -0.26010305 48 24
3.9434865 -0.54353678 -0.2060391 25 28
3.9607089 -0.54661262 -0.15151669 48 36
3.9253309 -0.30817086 -0.38184458 44 15
3.9821329 -0.55027473 -0.096667476 32 44
3.9451156 -0.31040341 -0.32858846 48 19
3.9979506 -0.55245835 -0.040491506 48 52
4.0096583 -0.54195565 0.014697384 41 60
4.0041137 -0.54120696 0.070595779 28 68
3.9957528 -0.42158777 -0.15923078 52 35
4.0025492 -0.42230207 -0.10375043 38 43
4.0390129 -0.3070904 -0.055358034 43 50
4.0693088 -0.30937368 0.0007059857 37 58
4.0028419 -0.18691941 -0.1726945 48 33
4.0198417 -0.18769731 -0.11767279 95 41
3.8637064 -0.76970345 -0.29967424 30 21
3.8770885 -0.77307862 -0.24576963 32 25
3.7695813 -0.98505706 -0.39142522 47 14
3.8898737 -0.77563334 -0.19153842 28 30
3.9489083 -0.66878194 -0.089376554 29 45
3.8251216 -0.76477742 -0.48480105 29 9
3.9594989 -0.67128783 -0.034037553 39 53
3.8388438 -0.76752687 -0.40698457 33 13
3.8536756 -0.77119815 -0.35369429 29 17
3.8316638 -0.65097332 -0.51717693 51 8
3.7977483 -0.87961596 -0.46396255 33 10
3.9145682 -0.6678822 -0.19864994 25 29
3.9366508 -0.67165285 -0.14372826 64 37
3.8421285 -0.54051745 -0.56417894 49 7
4.0212135 -0.44556427 -0.048290908 43 51
3.9535093 -0.32077947 -0.27415505 48 23
3.8850932 -0.54655576 -0.42159957 52 12
4.0313568 -0.44739631 0.0077178408 35 59
3.9767909 -0.32335129 -0.22036362 31 27
3.9003105 -0.54938859 -0.36822397 48 16
4.0407982 -0.44844031 0.064003766 46 67
4.0043144 -0.3262741 -0.16618013 45 34
3.9147992 -0.55212426 -0.3144986 45 20
4.0112219 -0.32683229 -0.11071178 35 42
3.9237094 -0.55337971 -0.26010305 50 24
3.9415653 -0.55729884 -0.2060391 29 28
3.958777 -0.56043476 -0.15151669 53 36
3.9192717 -0.32146758 -0.38135755 43 15
3.9752388 -0.56347078 -0.096546188 38 44
3.9340761 -0.32336295 -0.32775342 35 19
3.9959977 -0.56641042 -0.040491506 42 52
4.0077419 -0.55594862 0.014697384 49 60
3.9873445 -0.55312186 0.07033138 39 68
3.984323 -0.43445385 -0.15883121 54 35
3.9960809 -0.43573114 -0.10362041 43 43
4.0279479 -0.3204011 -0.055220157 38 50
4.0532498 -0.32239681 0.00070336764 97 58
4.0021648 -0.20089078 -0.1726945 42 33
4.0241537 -0.2019739 -0.11782025 99 41
3.8609962 -0.7831856 -0.29967424 32 21
3.8743665 -0.78660744 -0.24576963 39 25
3.76612 -0.99820936 -0.39142522 35 14
3.8822486 -0.78821111 -0.19129504 29 30
3.9465497 -0.68256205 -0.089376554 37 45
3.8272901 -0.77911657 -0.48542339 32 9
3.8361416 -0.78092229 -0.40698457 38 13
3.8460813 -0.78364915 -0.35324201 37 17
3.8342505 -0.66519207 -0.51784253 54 8
3.7946546 -0.89286721 -0.46396255 31 10
3.9122131 -0.68154252 -0.19864994 29 29
3.9293597 -0.68453199 -0.14354679 67 37
3.8353221 -0.55322015 -0.56345284 53 7
4.014667 -0.45903227 -0.0482307 41 51
3.9523654 -0.33457783 -0.27415505 43 23
3.883162 -0.56011403 -0.42159957 49 12
4.0297709 -0.46146563 0.0077178408 42 59
3.9706633 -0.33681232 -0.22008538 37 27
3.8983688 -0.56299984 -0.36822397 46 16
4.0392084 -0.46254259 0.064003766 43 67
3.9981732 -0.33983001 -0.16597162 40 34
3.9128478 -0.56578612 -0.3144986 43 20
4.0000958 -0.33999214 -0.1104343 37 42
3.9168158 -0.56635934 -0.25977257 48 24
3.9297125 -0.56962281 -0.20551749 47 28
3.9567966 -0.5742501 -0.15151669 52 36
3.9181254 -0.33514643 -0.38135755 42 15
3.973248 -0.57734346 -0.096546188 43 44
3.9329238 -0.33709347 -0.32775342 33 19
3.9890485 -0.57963729 -0.040440891 41 52
4.0008273 -0.56923127 0.014679059 44 60
3.9827824 -0.44835904 -0.15883121 51 35
3.9945357 -0.44967738 -0.10362041 38 43
4.0268054 -0.3344593 -0.055220157 34 50
4.0620661 -0.33736446 0.00070511299 99 58
4.0014391 -0.21485971 -0.1726945 28 33
4.013442 -0.21549296 -0.11752532 68 41
3.8582389 -0.79665816 -0.29967424 40 21
3.8715973 -0.80012673 -0.24576963 42 25
3.7626128 -1.0113494 -0.39142522 54 14
3.8794739 -0.80175793 -0.19129504 34 30
3.9441431 -0.69633389 -0.089376554 49 45
3.8245471 -0.79247153 -0.48542339 45 9
3.8333921 -0.79430813 -0.40698457 48 13
3.8481977 -0.79808289 -0.35369429 43 17
3.8270261 -0.67770731 -0.51717693 52 8
3.7866874 -0.90495044 -0.46336621 31 10
3.9098103 -0.69519454 -0.19864994 43 29
3.9269464 -0.69824386 -0.14354679 40 37
3.8284738 -0.56588191 -0.56272674 57 7
4.0130401 -0.47304329 -0.0482307 39 51
3.9511733 -0.34837216 -0.27415505 31 23
3.8762655 -0.57293922 -0.42106044 50 12
4.0281358 -0.47552937 0.0077178408 40 59
3.9694633 -0.35067049 -0.22008538 37 27
3.8963799 -0.57660431 -0.36822397 43 16
4.0326047 -0.47605515 0.063924365 40 67
3.9969625 -0.35378414 -0.16597162 34 34
3.9059191 -0.57871127 -0.31409848 42 20
3.9988847 -0.353953 -0.1104343 33 42
3.9148149 -0.58002806 -0.25977257 45 24
3.9277003 -0.58333665 -0.20551749 46 28
3.9547679 -0.58805835 -0.15151669 44 36
3.9119747 -0.34838313 -0.38087049 32 15
3.9712083 -0.59120923 -0.096546188 38 44
3.9267595 -0.35038039 -0.32733589 38 19
3.9870009 -0.59355813 -0.040440891 41 52
3.9988158 -0.5831933 0.014679059 44 60
3.9811931 -0.46225885 -0.15883121 42 35
3.9929416 -0.46361822 -0.10362041 25 43
4.0256133 -0.34851345 -0.055220157 22 50
4.0459189 -0.35025784 0.00070249505 42 58
4.0006647 -0.22882602 -0.1726945 27 33
4.0176558 -0.2297819 -0.11767279 44 41
3.8554347 -0.81012112 -0.29967424 55 21
3.8638978 -0.81260717 -0.24545655 46 25
3.7494631 -1.021852 -0.39041638 50 14
3.8766518 -0.81529486 -0.19129504 30 30
3.9416883 -0.71009731 -0.089376554 48 45
3.8217576 -0.80581689 -0.48542339 40 9
3.8305962 -0.80768436 -0.40698457 50 13
3.8453884 -0.81151074 -0.35369429 48 17
3.8295131 -0.69194382 -0.51784253 48 8
3.7883286 -0.91933697 -0.46396255 33 10
3.9122732 -0.70973009 -0.19890204 45 29
3.9195688 -0.71105462 -0.14336531 45 37
3.8215833 -0.57850254 -0.56200063 43 7
4.0064006 -0.48644781 -0.048170485 29 51
3.9449661 -0.3617101 -0.27380717 28 23
3.8791566 -0.5872097 -0.42159957 54 12
4.0264511 -0.48958728 0.0077178408 28 59
3.9632435 -0.36407101 -0.21980715 23 27
3.8844995 -0.58871126 -0.36728463 42 16
4.0259552 -0.4895272 0.063844949 25 67
3.9907284 -0.3672795 -0.16576311 34 34
3.8989475 -0.59159493 -0.31369835 38 20
4.0026021 -0.36836427 -0.11057304 25 42
3.9127667 -0.5936898 -0.25977257 42 24
3.9256401 -0.59704322 -0.20551749 37 28
3.9477518 -0.60110807 -0.15132563 42 36
3.9107349 -0.36203635 -0.38087049 27 15
3.9641786 -0.60431498 -0.0964249 20 44
3.9255126 -0.3640852 -0.32733589 27 19
3.9799619 -0.6067189 -0.040390279 36 52
3.9918106 -0.59641004 0.014660733 42 60
3.8988612 -0.23470604 -0.44092706 96 11
3.9795554 -0.47615299 -0.15883121 38 35
3.9863362 -0.47696152 -0.1034904 29 43
4.0243721 -0.36256334 -0.055220157 20 50
4.044672 -0.3643786 0.00070249505 48 58
4.0492501 -0.36478803 0.056970879 46 66
3.9998419 -0.24278957 -0.1726945 30 33
4.0168295 -0.24380475 -0.11767279 41 41
3.8525832 -0.82357413 -0.29967424 47 21
3.8610377 -0.8260898 -0.24545655 53 25
3.8737822 -0.82882196 -0.19129504 40 30
3.9391859 -0.72385204 -0.089376554 42 45
3.8140712 -0.81810999 -0.48480105 53 9
3.8277538 -0.8210507 -0.40698457 53 13
3.8425324 -0.8249287 -0.35369429 49 17
3.8270745 -0.70530707 -0.51784253 43 8
3.7802777 -0.93136424 -0.46336621 36 10
3.9048615 -0.72247297 -0.19864994 40 29
3.9170625 -0.72473216 -0.14336531 44 37
3.82443 -0.59259564 -0.56272674 40 7
4.0046782 -0.50042981 -0.048170485 29 51
3.9486451 -0.3759478 -0.27415505 22 23
3.8721714 -0.59998637 -0.42106044 34 12
4.0247173 -0.50363922 0.0077178408 27 59
3.9619486 -0.3779031 -0.21980715 22 27
3.8873403 -0.60302949 -0.36775431 31 16
4.0242219 -0.50357747 0.063844949 23 67
3.9844487 -0.38073564 -0.16555461 32 34
3.8968585 -0.60520113 -0.31369835 17 20
4.0012918 -0.38233373 -0.11057304 22 42
3.9106703 -0.60734427 -0.25977257 47 24
4.051578 -0.26859963 -0.062520109 100 49
3.9235322 -0.61074269 -0.20551749 17 28
3.9505661 -0.61565334 -0.15151669 47 36
3.9144011 -0.37615776 -0.38135755 27 15
3.9620452 -0.61814892 -0.0964249 13 44
3.929178 -0.37825969 -0.32775342 25 19
3.9778199 -0.62060791 -0.040390279 30 52
3.9897044 -0.61034042 0.014660733 46 60
3.8980181 -0.24831417 -0.44092706 98 11
3.977869 -0.49004132 -0.15883121 33 35
3.9846468 -0.49087352 -0.1034904 28 43
4.0230823 -0.37660879 -0.055220157 23 50
4.043375 -0.37849489 0.00070249505 43 58
4.0479522 -0.37892029 0.056970879 95 66
4.0039554 -0.25706556 -0.17291173 35 33
4.0109653 -0.25750905 -0.11752532 53 41
3.8448138 -0.83595598 -0.29929152 49 21
3.8581305 -0.8395623 -0.24545655 50 25
3.8111923 -0.83141851 -0.48480105 50 9
3.8248644 -0.83440703 -0.40698457 53 13
3.8347652 -0.83727247 -0.35324201 49 17
3.8245893 -0.71866173 -0.51784253 42 8
3.7770035 -0.94455421 -0.46336621 41 10
3.8974094 -0.73517287 -0.19839785 20 29
3.9145093 -0.73840082 -0.14336531 39 37
3.8223381 -0.60594183 -0.56272674 30 7
4.0029068 -0.51440567 -0.048170485 25 51
3.9473085 -0.38972887 -0.27415505 27 23
3.8651435 -0.61272156 -0.42052132 41 12
4.0179753 -0.51704884 0.0077082412 23 59
3.9655735 -0.39221859 -0.22008538 27 27
3.880295 -0.61581552 -0.36728463 28 16
4.0174809 -0.51698536 0.063765541 23 67
3.9830954 -0.39464164 -0.16555461 36 34
3.8947222 -0.6188001 -0.31369835 37 20
3.9949591 -0.39580905 -0.1104343 30 42
3.9085264 -0.62099141 -0.25977257 42 24
4.0356522 -0.28171 -0.062287111 97 49
3.9213762 -0.62443459 -0.20551749 20 28
3.943459 -0.62865371 -0.15132563 41 36
3.913064 -0.38981932 -0.38135755 35 15
3.9549272 -0.63118815 -0.096303612 14 44
3.9278336 -0.39197275 -0.32775342 30 19
3.9706919 -0.63370198 -0.040339664 25 52
3.8971279 -0.26191929 -0.44092706 97 11
3.9711776 -0.50329751 -0.15863143 31 35
3.9829092 -0.50477958 -0.1034904 29 43
4.0267191 -0.39112967 -0.05528909 29 50
4.0370522 -0.3921265 0.00070162234 46 58
4.0416288 -0.39256796 0.0569002 99 66
4.0030336 -0.27104038 -0.17291173 46 33
4.0100427 -0.27150834 -0.11752532 50 41
3.8370051 -0.8482936 -0.2989088 36 21
3.8551764 -0.85302454 -0.24545655 46 25
3.8131094 -0.84579331 -0.48542339 42 9
3.8219283 -0.84775323 -0.40698457 51 13
3.8269582 -0.849572 -0.3527897 39 17
3.8220575 -0.73200768 -0.51784253 40 8
3.7736833 -0.95773262 -0.46336621 56 10
3.8948193 -0.74877286 -0.19839785 20 29
3.9070013 -0.75111651 -0.14318383 36 37
3.8250828 -0.62007147 -0.56345284 23 7
4.0010872 -0.52837533 -0.048170485 27 51
3.9459243 -0.40350515 -0.27415505 32 23
3.8678882 -0.62700444 -0.42106044 29 12
4.0161462 -0.53107107 0.0077082412 29 59
3.9641805 -0.40605867 -0.22008538 34 27
3.8830357 -0.6301533 -0.36775431 27 16
4.0106945 -0.53035241 0.063686132 25 67
3.9866633 -0.40904939 -0.16576311 39 34
3.8925383 -0.63239145 -0.31369835 14 20
3.9935532 -0.40975165 -0.1104343 35 42
3.9014103 -0.63383156 -0.25944206 31 24
4.0446177 -0.29651725 -0.062442444 38 49
3.9191728 -0.63811898 -0.20551749 20 28
3.9412403 -0.64241511 -0.15132563 41 36
3.91663 -0.40398329 -0.38184458 40 15
3.9526999 -0.64498961 -0.096303612 20 44
3.9313977 -0.40618977 -0.32817093 36 19
3.9684556 -0.64755845 -0.040339664 20 52
3.8961897 -0.27552122 -0.44092706 95 11
3.9693966 -0.51715648 -0.15863143 35 35
3.981123 -0.51867944 -0.1034904 29 43
4.0253291 -0.4051832 -0.05528909 36 50
4.0356584 -0.40621606 0.00070162234 48 58
4.0402336 -0.40667349 0.0569002 37 66
3.9970801 -0.28466171 -0.1726945 49 33
4.0090704 -0.28550434 -0.11752532 50 41
3.8388839 -0.86277717 -0.29929152 38 21
3.8473074 -0.86537945 -0.24514347 44 25
3.7956164 -0.85581875 -0.48355639 29 9
3.8189456 -0.86108911 -0.40698457 36 13
3.8288264 -0.86402357 -0.35324201 25 17
3.8194788 -0.74534464 -0.51784253 31 8
3.7751236 -0.97214061 -0.46396255 58 10
3.8921816 -0.76236373 -0.19839785 25 29
3.9043553 -0.76474994 -0.14318383 40 37
3.8228948 -0.63341975 -0.56345284 25 7
3.9992182 -0.54233849 -0.048170485 40 51
3.9444916 -0.41727656 -0.27415505 44 23
3.87058 -0.64131397 -0.42159957 30 12
4.0142679 -0.54508674 0.0077082412 33 59
3.962739 -0.41989374 -0.22008538 43 27
3.8808124 -0.64370382 -0.36775431 20 16
4.0038657 -0.54367846 0.063606724 28 67
3.9852111 -0.42296299 -0.16576311 45 34
3.8952243 -0.6467908 -0.31409848 23 20
3.9920983 -0.42368928 -0.1104343 42 42
3.9090178 -0.64907926 -0.26010305 28 24
4.0286031 -0.30949882 -0.06220945 49 49
3.9169214 -0.65179563 -0.20551749 17 28
3.9389741 -0.65616876 -0.15132563 40 36
3.9151959 -0.41765243 -0.38184458 42 15
3.9504244 -0.65878314 -0.096303612 25 44
3.9299557 -0.41991043 -0.32817093 43 19
3.966171 -0.66140693 -0.040339664 23 52
3.9001586 -0.28948274 -0.44149306 97 11
3.967567 -0.53100908 -0.15863143 45 35
3.9792879 -0.53257298 -0.1034904 31 43
4.0238905 -0.41923177 -0.05528909 38 50
4.0342164 -0.42030066 0.00070162234 46 58
4.0338163 -0.4202593 0.056829516 44 66
4.0010438 -0.29898 -0.17291173 52 33
4.0275927 -0.42032555 0.11280584 78 71
4.008049 -0.29949689 -0.11752532 49 41
3.835849 -0.87617213 -0.29929152 31 21
3.8442631 -0.87880379 -0.24514347 43 25
3.7877707 -0.86795264 -0.48293403 28 9
3.8110704 -0.87330186 -0.40646282 35 13
3.8209338 -0.87626827 -0.3527897 38 17
3.8168538 -0.75867265 -0.51784253 32 8
3.7669053 -0.98405445 -0.46336621 56 10
3.8894968 -0.77594537 -0.19839785 25 29
3.815783 -0.6459353 -0.56272674 33 7
3.9973009 -0.5562951 -0.048170485 41 51
3.9430108 -0.43104285 -0.27415505 47 23
3.8634164 -0.65399194 -0.42106044 34 12
4.012341 -0.55909592 0.0077082412 36 59
3.9612489 -0.43372375 -0.22008538 46 27
3.8834498 -0.65807748 -0.36822397 31 16
4.0019436 -0.55765134 0.063606724 32 67
3.9837108 -0.43687138 -0.16576311 48 34
3.8929429 -0.66038376 -0.31409848 29 20
3.9905953 -0.43762171 -0.1104343 46 42
3.9018095 -0.66188663 -0.25977257 31 24
4.0274978 -0.32355937 -0.06220945 43 49
3.9146223 -0.66546422 -0.20551749 23 28
4.0628076 -0.3270767 -0.0063465815 101 57
3.9415853 -0.67075181 -0.15151669 48 36
3.9137142 -0.43131644 -0.38184458 45 15
3.953028 -0.67340744 -0.0964249 30 44
3.9284661 -0.433626 -0.32817093 49 19
3.9589093 -0.6744085 -0.040289048 31 52
3.8941712 -0.30271482 -0.44092706 43 11
3.9656894 -0.5448553 -0.15863143 49 35
3.9774048 -0.54646009 -0.1034904 37 43
4.0174317 -0.43274307 -0.055220157 38 50
4.0327244 -0.43438011 0.00070162234 45 58
4.0323248 -0.43433732 0.056829516 43 66
3.9949954 -0.31255949 -0.1726945 54 33
4.0410099 -0.4359805 0.11322729 98 71
4.0069795 -0.3134858 -0.11752532 44 41
3.8279116 -0.88842738 -0.2989088 28 21
3.7895494 -0.88229614 -0.48355639 28 9
3.8079987 -0.88659966 -0.40646282 36 13
3.8178523 -0.88960052 -0.3527897 30 17
3.8141823 -0.77199131 -0.51784253 42 8
3.7634473 -0.99719727 -0.46336621 34 10
3.8867645 -0.78951752 -0.19839785 31 29
3.8135052 -0.65925092 -0.56272674 41 7
3.9953346 -0.57024485 -0.048170485 39 51
3.9365256 -0.4442479 -0.27380717 47 23
3.8611102 -0.66747373 -0.42106044 49 12
4.0103645 -0.57309812 0.0077082412 35 59
3.9547498 -0.44699109 -0.21980715 36 27
3.881129 -0.67162919 -0.36822397 39 16
3.9950228 -0.57091194 0.063527316 42 67
3.9771972 -0.45021585 -0.16555461 44 34
3.890614 -0.67396861 -0.31409848 34 20
3.9840765 -0.45098993 -0.11029556 43 42
3.8994751 -0.67550242 -0.25977257 50 24
4.0213614 -0.33720285 -0.062131785 36 49
3.9171956 -0.67997801 -0.2057783 28 28
4.0466924 -0.34001443 -0.0063230176 97 57
3.9342973 -0.68365169 -0.15132563 49 36
3.9072402 -0.44441622 -0.38135755 47 15
3.9506536 -0.68720192 -0.0964249 40 44
3.9219778 -0.4467757 -0.32775342 35 19
3.9565313 -0.68822354 -0.040289048 39 52
3.8980424 -0.31670371 -0.44149306 38 11
3.9637632 -0.55869478 -0.15863143 53 35
3.9754729 -0.56034046 -0.1034904 42 43
4.0158968 -0.4467639 -0.055220157 40 50
4.0311837 -0.44845432 0.00070162234 44 58
4.025815 -0.44786063 0.056758828 38 66
3.99388 -0.32650265 -0.1726945 38 33
4.0295281 -0.44898322 0.11294633 97 71
4.0058608 -0.32747081 -0.11752532 42 41
3.8247871 -0.90178388 -0.2989088 29 21
3.7864463 -0.89551872 -0.48355639 32 9
3.8048806 -0.89988661 -0.40646282 34 13
3.8147235 -0.90292192 -0.3527897 31 17
3.821171 -0.78730196 -0.51917374 54 8
3.883985 -0.80308002 -0.19839785 33 29
3.8111808 -0.67255855 -0.56272674 52 7
3.99332 -0.58418769 -0.048170485 38 51
3.9349511 -0.45798627 -0.27380717 48 23
3.8587568 -0.68094748 -0.42106044 53 12
3.998445 -0.58564818 0.0076890434 43 59
3.9482067 -0.46021837 -0.21952891 33 27
3.8738589 -0.68430752 -0.36775431 47 16
3.9756014 -0.46409613 -0.16555461 41 34
3.8833294 -0.68667805 -0.31369835 46 20
3.9874427 -0.46547043 -0.1104343 34 42
3.8970933 -0.68910998 -0.25977257 46 24
4.0201602 -0.35123795 -0.062131785 26 49
3.9098811 -0.69277698 -0.20551749 28 28
4.0554433 -0.35500082 -0.0063387267 32 57
3.9269674 -0.69650894 -0.15113457 48 36
3.9106078 -0.45862859 -0.38184458 44 15
3.9433093 -0.70011503 -0.096303612 43 44
3.9253433 -0.46104103 -0.32817093 35 19
3.8969133 -0.33030847 -0.44149306 42 11
3.9617889 -0.57252747 -0.15863143 53 35
3.9734929 -0.57421404 -0.1034904 45 43
4.0093451 -0.46021238 -0.055151217 36 50
4.0246258 -0.46195614 0.00070074963 43 58
4.0242271 -0.46191061 0.056758828 36 66
3.9877386 -0.34002224 -0.17247728 40 33
4.0279365 -0.46304616 0.11294633 96 71
3.9997129 -0.34103197 -0.11737787 31 41
3.8216162 -0.91512936 -0.2989088 28 21
3.7881205 -0.90989107 -0.48417869 33 9
3.7968814 -0.91199923 -0.40594101 40 13
3.8163896 -0.9173981 -0.35324201 33 17
3.8183994 -0.80063552 -0.51917374 56 8
3.8811581 -0.81663281 -0.19839785 30 29
3.8136783 -0.68673384 -0.56345284 55 7
3.9863117 -0.59738439 -0.048110269 40 51
3.9333284 -0.471719 -0.27380717 41 23
3.8563564 -0.69441283 -0.42106044 50 12
3.9963763 -0.59960175 0.0076890434 42 59
3.9465759 -0.47399738 -0.21952891 37 27
3.8665476 -0.69694328 -0.36728463 46 16
3.9689968 -0.47737753 -0.1653461 33 34
3.8809087 -0.70022923 -0.31369835 46 20
3.9758682 -0.4781993 -0.11015683 36 42
3.894664 -0.7027092 -0.25977257 48 24
4.0139298 -0.36482093 -0.06205412 22 49
3.9074392 -0.70642078 -0.20551749 42 28
4.0392404 -0.36780834 -0.0063151629 43 57
3.9245121 -0.71021235 -0.15113457 48 36
3.9139237 -0.47286987 -0.38233164 36 15
4.0688143 -0.3704738 0.050185654 34 65
3.9408412 -0.71387553 -0.096303612 47 44
3.9187634 -0.47414517 -0.32775342 40 19
3.9006858 -0.34434137 -0.4420591 31 11
3.954824 -0.58562332 -0.15843163 42 35
3.9665196 -0.58735043 -0.10336038 36 43
3.9977834 -0.4730365 -0.05501334 27 50
4.0229888 -0.47600192 0.00070074963 35 58
4.0225902 -0.47595501 0.056758828 18 66
3.9915032 -0.35437703 -0.1726945 29 33
4.0262952 -0.47710344 0.11294633 51 71
3.9935195 -0.35455415 -0.11723041 30 41
3.8183982 -0.92846376 -0.2989088 34 21
3.7849216 -0.92310858 -0.48417869 36 9
3.7936749 -0.92524725 -0.40594101 45 13
3.813164 -0.93071425 -0.35324201 38 17
3.8107355 -0.81292486 -0.51850814 49 8
3.878284 -0.83017564 -0.19839785 42 29
3.8112581 -0.70004201 -0.56345284 57 7
3.9842019 -0.6112957 -0.048110269 29 51
3.926707 -0.48483813 -0.27345923 27 23
3.853909 -0.70786995 -0.42106044 50 12
3.9942591 -0.61354804 0.0076890434 41 59
3.9448974 -0.48777062 -0.21952891 37 27
3.8640912 -0.71043581 -0.36728463 45 16
3.9673061 -0.491229 -0.1653461 37 34
3.8735392 -0.71287048 -0.31329823 43 20
3.9741745 -0.49207476 -0.11015683 33 42
3.8872809 -0.71539748 -0.25944206 45 24
4.0126319 -0.37882993 -0.06205412 20 49
3.9049497 -0.720056 -0.20551749 43 28
4.0379314 -0.38190567 -0.0063151629 41 57
3.9220092 -0.72390711 -0.15113457 45 36
3.8974335 -0.48469687 -0.38087049 26 15
4.0525627 -0.38327587 0.049999785 103 65
3.9432406 -0.7285347 -0.0964249 43 44
3.9121394 -0.4872089 -0.32733589 37 19
3.8994598 -0.35795522 -0.4420591 29 11
3.9478157 -0.59867764 -0.15823184 42 35
3.9644449 -0.60119259 -0.10336038 25 43
3.9961078 -0.48698848 -0.05501334 19 50
4.0213027 -0.49004188 0.00070074963 39 58
4.0159407 -0.48939204 0.056688145 18 66
3.9852676 -0.36785337 -0.17247728 28 33
4.0246053 -0.49115494 0.11294633 43 71
3.9972348 -0.3689467 -0.11737787 30 41
3.7816763 -0.93631482 -0.48417869 47 9
3.7952487 -0.93968117 -0.40646282 49 13
3.8098919 -0.94401902 -0.35324201 54 17
3.8030317 -0.82517034 -0.51784253 46 8
3.8039291 -0.71243149 -0.56272674 54 7
3.9771047 -0.62442589 -0.048050057 29 51
3.9249909 -0.49854195 -0.27345923 21 23
3.8514147 -0.72131819 -0.42106044 54 12
3.9871533 -0.62671256 0.0076794438 32 59
3.9431705 -0.50153786 -0.21952891 23 27
3.8566952 -0.72300321 -0.36681497 43 16
3.9655676 -0.5050745 -0.1653461 27 34
3.8661287 -0.72546887 -0.3128981 32 20
3.9724331 -0.50594425 -0.11015683 23 42
3.8847599 -0.7289623 -0.25944206 43 24
4.0112853 -0.39283431 -0.06205412 23 49
3.9024122 -0.73368239 -0.20551749 20 28
4.0315971 -0.39551479 -0.0063073081 38 57
3.9194582 -0.73759305 -0.15113457 43 36
3.8957176 -0.49829847 -0.38087049 27 15
4.0561767 -0.3979032 0.050061744 97 65
3.9357615 -0.74137014 -0.096303612 43 44
3.9104149 -0.50086182 -0.32733589 23 19
3.8981864 -0.37156469 -0.4420591 34 11
3.9802623 -0.61780465 -0.15963036 33 35
3.9573832 -0.61426282 -0.10323038 28 43
3.9993448 -0.50155336 -0.055082276 23 50
4.014606 -0.50345695 0.00069987698 31 58
4.0092473 -0.50278854 0.056617465 19 66
3.9789863 -0.38129047 -0.17226005 35 33
3.9931095 -0.5014835 0.11210345 97 71
3.990947 -0.38242531 -0.11723041 29 41
3.7735739 -0.94829851 -0.48355639 53 9
3.7919455 -0.95292336 -0.40646282 55 13
3.8017449 -0.95609576 -0.3527897 54 17
3.8001282 -0.83844036 -0.51784253 42 8
3.806278 -0.72663224 -0.56345284 42 7
3.969964 -0.637514 -0.047989845 20 51
3.9281731 -0.51288205 -0.27380717 24 23
3.8439903 -0.73382628 -0.42052132 35 12
3.9463465 -0.51594287 -0.21980715 24 27
3.8541477 -0.73646116 -0.36681497 32 16
3.9588263 -0.5182687 -0.16513759 32 34
3.868468 -0.73989534 -0.31329823 20 20
3.9755988 -0.52045298 -0.11029556 25 42
3.8821919 -0.74251825 -0.25944206 41 24
4.014864 -0.40733394 -0.062131785 29 49
3.8949234 -0.74636084 -0.20525669 23 28
4.0301924 -0.4095853 -0.0063073081 44 57
3.9119525 -0.75032949 -0.15094349 45 36
3.8988888 -0.51253927 -0.38135755 30 15
4.0448141 -0.41105762 0.049937826 38 65
3.9086425 -0.51450866 -0.32733589 25 19
3.8968661 -0.38516963 -0.4420591 42 11
3.9682126 -0.63013154 -0.15923078 36 35
3.955215 -0.62807292 -0.10323038 28 43
4.0025287 -0.51614672 -0.055151217 26 50
4.0128241 -0.51746744 0.00069987698 32 58
4.0124264 -0.51741642 0.056688145 22 66
3.9826024 -0.3956666 -0.17247728 41 33
3.989588 -0.39635399 -0.11723041 37 41
3.7702408 -0.96146494 -0.48355639 50 9
3.783778 -0.96492308 -0.40594101 51 13
3.8080328 -0.97182703 -0.35369429 55 17
3.7971783 -0.85170019 -0.51784253 41 8
3.8037183 -0.73991424 -0.56345284 25 7
3.9677145 -0.6513679 -0.047989845 21 51
3.9263587 -0.52659088 -0.27380717 29 23
3.8414052 -0.74723983 -0.42052132 38 12
3.9445214 -0.52971512 -0.21980715 28 27
3.8466671 -0.74895948 -0.36634529 29 16
3.9619448 -0.53274679 -0.1653461 37 34
3.8658619 -0.75339425 -0.31329823 33 20
3.973758 -0.53432721 -0.11029556 33 42
3.8795762 -0.75606507 -0.25944206 43 24
4.0134177 -0.42134592 -0.062131785 39 49
3.8922942 -0.75995219 -0.20525669 23 28
4.0237646 -0.42313248 -0.0062994533 48 57
3.9093094 -0.76398015 -0.15094349 33 36
3.8970761 -0.52614582 -0.38135755 37 15
4.0334096 -0.42413765 0.049813911 51 65
3.9068229 -0.52814925 -0.32733589 31 19
3.8954976 -0.39876989 -0.4420591 47 11
3.94133 -0.6399855 -0.15823184 31 35
3.9529984 -0.64187539 -0.10323038 31 43
4.0007024 -0.53011507 -0.055151217 32 50
4.0109935 -0.53147173 0.00069987698 43 58
4.0056396 -0.53076595 0.056617465 25 66
3.9811971 -0.40956604 -0.17247728 46 33
3.9881802 -0.41027781 -0.11723041 48 41
3.7716639 -0.97586435 -0.48417869 45 9
3.7803867 -0.97812504 -0.40594101 49 13
3.7997975 -0.98386359 -0.35324201 55 17
3.7845197 -0.86274546 -0.51651132 40 8
3.8011124 -0.75318712 -0.56345284 20 7
3.9654164 -0.66521382 -0.047989845 24 51
3.9195549 -0.53961629 -0.27345923 35 23
3.8387735 -0.76064426 -0.42052132 29 12
3.9377027 -0.54280239 -0.21952891 37 27
3.8489127 -0.76335001 -0.36681497 25 16
3.9600611 -0.54657334 -0.1653461 39 34
3.8583198 -0.76591432 -0.3128981 28 20
3.9718685 -0.54819494 -0.11029556 39 42
3.8769133 -0.76960266 -0.25944206 27 24
4.0069518 -0.43481812 -0.06205412 39 49
3.8896179 -0.77353412 -0.20525669 25 28
4.0272346 -0.43771112 -0.0063073081 46 57
3.9066191 -0.77762163 -0.15094349 29 36
3.9001451 -0.5404256 -0.38184458 40 15
4.0269332 -0.43767866 0.049751952 50 65
3.9049556 -0.54178339 -0.32733589 41 19
3.8940818 -0.41236526 -0.4420591 48 11
3.9390719 -0.65373939 -0.15823184 38 35
3.9507337 -0.65566999 -0.10323038 28 43
3.9988277 -0.5440768 -0.055151217 38 50
4.0091138 -0.5454694 0.00069987698 49 58
4.0037627 -0.54474491 0.056617465 31 66
3.979743 -0.42346054 -0.17247728 50 33
3.9867234 -0.42419669 -0.11723041 50 41
3.7586386 -0.98650104 -0.48293403 31 9
3.7673309 -0.98878628 -0.40489748 49 13
3.7766576 -0.87483168 -0.51584572 34 8
3.8033097 -0.76742882 -0.56417894 28 7
3.9581423 -0.6782093 -0.047929633 38 51
3.9225869 -0.55398893 -0.27380717 45 23
3.8360949 -0.77403945 -0.42052132 31 12
3.9357839 -0.55654424 -0.21952891 44 27
3.8462243 -0.77678055 -0.36681497 30 16
3.9581289 -0.56039321 -0.1653461 46 34
3.8605082 -0.78036451 -0.31329823 30 20
3.9649816 -0.56135875 -0.11015683 46 42
3.8693132 -0.78214312 -0.25911155 31 24
4.0054097 -0.44880229 -0.06205412 39 49
3.886894 -0.78710675 -0.20525669 28 28
4.0207129 -0.45121309 -0.0062994533 44 57
3.898984 -0.79026163 -0.15075243 37 36
3.8982351 -0.55403638 -0.38184458 43 15
4.0253811 -0.45173264 0.049751952 43 65
3.9129071 -0.55680817 -0.32817093 44 19
3.8926187 -0.42595562 -0.4420591 51 11
3.9416921 -0.66831851 -0.15843163 47 35
3.948421 -0.6694566 -0.10323038 36 43
3.9919522 -0.55734408 -0.055082276 37 50
4.0071855 -0.55946058 0.00069987698 48 58
3.9968848 -0.55802941 0.056546781 35 66
3.9782407 -0.43734989 -0.17247728 54 33
3.9852188 -0.43811038 -0.11723041 51 41
3.7734659 -1.0044931 -0.40594101 49 13
3.7784042 -0.8891452 -0.51651132 36 8
3.8199918 -0.78467911 -0.5670833 33 7
3.9557507 -0.69202161 -0.047929633 40 51
3.9156923 -0.56696659 -0.27345923 48 23
3.83337 -0.78742528 -0.42052132 41 12
3.9288762 -0.56956637 -0.21925066 45 27
3.8434896 -0.79020166 -0.36681497 35 16
3.9512041 -0.57349199 -0.16513759 46 34
3.8577604 -0.79383546 -0.31329823 32 20
3.9629979 -0.57519573 -0.11015683 46 42
3.8714461 -0.79664969 -0.25944206 39 24
4.0038185 -0.46278104 -0.06205412 39 49
3.8792324 -0.79966223 -0.20499587 31 28
4.0240803 -0.46581563 -0.0063073081 43 57
3.8913527 -0.5669263 -0.38135755 47 15
4.0188122 -0.46521074 0.049689993 42 65
3.9060092 -0.56974751 -0.32775342 40 19
3.8861711 -0.43898791 -0.44149306 50 11
3.934412 -0.68122309 -0.15823184 50 35
3.9460599 -0.68323511 -0.10323038 40 43
3.9899824 -0.57127517 -0.055082276 38 50
4.0002584 -0.57273948 0.00069900439 45 58
3.9717257 -0.45067528 -0.17226005 51 33
3.983665 -0.45201871 -0.11723041 44 41
3.7699366 -1.0176587 -0.40594101 47 13
3.7415404 -0.89426041 -0.51185209 49 8
3.8172295 -0.79800856 -0.5670833 39 7
3.9136894 -0.58063143 -0.27345923 48 23
3.8305979 -0.8008014 -0.42052132 50 12
3.9219255 -0.58254713 -0.21897244 36 27
3.840708 -0.80361313 -0.36681497 45 16
3.9491782 -0.58728075 -0.16513759 44 34
3.8549659 -0.80729669 -0.31329823 36 20
3.9609659 -0.58902562 -0.11015683 40 42
3.8637583 -0.80913675 -0.25911155 43 24
3.9972138 -0.47616744 -0.061976455 29 49
3.8764172 -0.81319851 -0.20499587 32 28
4.0174646 -0.47927174 -0.0062994533 42 57
3.8893502 -0.58050615 -0.38135755 49 15
4.0171638 -0.47923616 0.049689993 30 65
3.9039967 -0.58337855 -0.32775342 36 19
3.8895502 -0.45312062 -0.4420591 39 11
3.9320099 -0.69495267 -0.15823184 46 35
3.943651 -0.69700533 -0.10323038 46 43
3.9879639 -0.5851993 -0.055082276 37 50
3.998235 -0.58669949 0.00069900439 45 58
3.9651661 -0.46396053 -0.17204282 41 33
3.9820628 -0.46592152 -0.11723041 39 41
3.7567699 -1.0281827 -0.40489748 43 13
3.7769206 -0.91667098 -0.51717693 53 8
3.8095815 -0.81029969 -0.5663572 51 7
3.9067068 -0.59354329 -0.27311134 45 23
3.8277793 -0.81416774 -0.42052132 54 12
3.919868 -0.59623367 -0.21897244 32 27
3.8378794 -0.81701487 -0.36681497 50 16
3.9421651 -0.60031366 -0.16492909 39 34
3.8521245 -0.82074815 -0.31329823 43 20
3.9539444 -0.6020993 -0.11001809 30 42
3.8609104 -0.82261884 -0.25911155 53 24
3.9905646 -0.48951331 -0.06189879 24 49
3.8735549 -0.82672471 -0.20499587 34 28
4.0108042 -0.49268743 -0.006291599 38 57
3.8823802 -0.59333056 -0.38087049 42 15
4.0154667 -0.49325576 0.049689993 21 65
3.8871589 -0.59475183 -0.32650086 38 19
3.8879447 -0.46669492 -0.4420591 38 11
3.9246433 -0.70778894 -0.15803206 46 35
3.9411941 -0.71076685 -0.10323038 46 43
3.9809525 -0.59837645 -0.05501334 36 50
3.9912176 -0.59991241 0.00069813168 43 58
3.9635224 -0.47779873 -0.17204282 32 33
3.97545 -0.47922522 -0.11708295 33 41
3.7627404 -1.0439529 -0.40594101 42 13
3.7303948 -0.91917306 -0.51118648 46 8
3.8018947 -0.82254738 -0.56563115 53 7
3.9046111 -0.60717666 -0.27311134 37 23
3.8249137 -0.8275243 -0.42052132 52 12
3.9177628 -0.60991293 -0.21897244 38 27
3.8350041 -0.83040655 -0.36681497 52 16
3.9252357 -0.61177272 -0.16430356 37 34
3.849236 -0.83418953 -0.31329823 43 20
3.9468794 -0.61513108 -0.10987935 36 42
3.8580153 -0.83609092 -0.25911155 51 24
3.9888318 -0.50344002 -0.06189879 27 49
3.8657658 -0.83918232 -0.20473507 42 28
4.0090599 -0.50668478 -0.006291599 30 57
3.8802855 -0.60687906 -0.38087049 31 15
4.00876 -0.50664711 0.049628042 19 65
3.8949053 -0.60985172 -0.32733589 33 19
3.8813612 -0.47965896 -0.44149306 32 11
3.9221489 -0.72148424 -0.15803206 44 35
3.9386892 -0.72451997 -0.10323038 44 43
3.9738975 -0.61151183 -0.0549444 18 50
3.989099 -0.6138407 0.00069813168 41 58
3.9618304 -0.49163109 -0.17204282 27 33
3.973753 -0.49309921 -0.11708295 32 41
3.7608144 -0.94061023 -0.51584572 42 8
3.7990003 -0.83581346 -0.56563115 58 7
3.902468 -0.62080258 -0.27311134 37 23
3.8171473 -0.83980334 -0.41998219 57 12
3.9156101 -0.62358469 -0.21897244 29 27
3.8272204 -0.84271836 -0.36634529 53 16
3.9230764 -0.62547064 -0.16430356 32 34
3.8414335 -0.84654891 -0.3128981 42 20
3.9397719 -0.6281209 -0.10974062 34 42
3.8550735 -0.84955281 -0.25911155 51 24
3.9870498 -0.51736051 -0.06189879 24 49
4.007267 -0.5206759 -0.006291599 28 57
3.868315 -0.61885458 -0.3798964 29 15
4.0069671 -0.52063721 0.049628042 20 65
3.8878324 -0.62265915 -0.32691839 30 19
3.879663 -0.4932045 -0.44149306 28 11
3.9196067 -0.73517072 -0.15803206 37 35
3.9667995 -0.62460536 -0.05487546 18 50
3.9819922 -0.62698716 0.00069725898 38 58
3.9600904 -0.50545746 -0.17204282 29 33
3.9720075 -0.50696719 -0.11708295 30 41
3.7960596 -0.84906936 -0.56563115 59 7
3.8953533 -0.63362348 -0.27276343 20 23
3.8141925 -0.85312253 -0.41998219 54 12
3.9134092 -0.63724899 -0.21897244 23 27
3.8242552 -0.85607266 -0.36634529 47 16
3.9307313 -0.64076179 -0.16472058 41 34
3.8335917 -0.85886395 -0.31249797 28 20
3.9424887 -0.64267027 -0.10987935 25 42
3.8472161 -0.86191434 -0.25878108 44 24
3.990176 -0.53193086 -0.061976455 26 49
4.005425 -0.5346607 -0.006291599 33 57
3.8710427 -0.63315368 -0.38038346 27 15
4.005125 -0.53462094 0.049628042 24 65
3.8856354 -0.63622648 -0.32691839 25 19
3.8779178 -0.50674409 -0.44149306 33 11
3.9170165 -0.7488482 -0.15803206 28 35
3.9645951 -0.63844818 -0.05487546 21 50
3.9533486 -0.51863259 -0.1718256 36 33
3.9702137 -0.52082896 -0.11708295 32 41
3.7834244 -0.86012286 -0.56417894 54 7
3.9029598 -0.64884627 -0.27345923 24 23
3.8111913 -0.86643136 -0.41998219 49 12
3.9160862 -0.65172166 -0.21925066 23 27
3.8260977 -0.87052029 -0.36681497 36 16
3.9284706 -0.65447873 -0.16472058 34 34
3.8305702 -0.87224042 -0.31249797 25 20
3.9402215 -0.65642822 -0.10987935 30 42
3.8441839 -0.87533838 -0.25878108 47 24
3.9882951 -0.54585594 -0.061976455 31 49
3.99858 -0.54796475 -0.0062837442 42 57
3.868809 -0.64666224 -0.38038346 31 15
4.0032349 -0.54859823 0.049628042 28 65
3.8833909 -0.649786 -0.32691839 24 19
3.8761253 -0.52027744 -0.44149306 42 11
3.9094741 -0.76156324 -0.15783226 36 35
3.9672761 -0.65309209 -0.0549444 22 50
3.951514 -0.53242922 -0.1718256 42 33
3.9683714 -0.53468442 -0.11708295 44 41
3.7611182 -0.86887288 -0.56127453 54 7
3.8957529 -0.66163439 -0.27311134 29 23
3.8033001 -0.87861139 -0.41944304 33 12
3.9039431 -0.66372049 -0.2186942 28 27
3.8133354 -0.88162929 -0.36587563 25 16
3.9310877 -0.6690225 -0.16492909 37 34
3.8275023 -0.88560629 -0.31249797 32 20
3.9428339 -0.67101347 -0.11001809 37 42
3.8411052 -0.88875175 -0.25878108 43 24
3.9863648 -0.55977434 -0.061976455 42 49
3.9966431 -0.56191897 -0.0062837442 46 57
3.8763399 -0.66183126 -0.38135755 37 15
4.0012956 -0.56256872 0.049628042 32 65
3.8860109 -0.66417366 -0.32733589 32 19
3.8742857 -0.53380448 -0.44149306 47 11
3.9067922 -0.77520519 -0.15783226 41 35
3.9501798 -0.66445845 -0.054737583 28 50
3.9496315 -0.54621929 -0.1718256 47 33
3.966481 -0.54853338 -0.11708295 51 41
3.772511 -0.88538527 -0.56345284 50 7
3.8983347 -0.67607802 -0.27345923 38 23
3.8050497 -0.89301711 -0.41998219 29 12
3.9114411 -0.67904496 -0.21925066 39 27
3.810235 -0.89493495 -0.36587563 29 16
3.9287283 -0.68274051 -0.16492909 40 34
3.8243876 -0.89896142 -0.31249797 29 20
3.9355426 -0.68391997 -0.10987935 43 42
3.9843867 -0.57368594 -0.061976455 37 49
3.9946573 -0.57586652 -0.0062837442 45 57
3.874006 -0.67535818 -0.38135755 42 15
3.9943583 -0.57582372 0.049566083 41 65
3.8836689 -0.67773432 -0.32733589 40 19
3.8773186 -0.54801553 -0.4420591 48 11
3.9576919 -0.67992961 -0.05487546 25 50
3.9526467 -0.5606997 -0.17204282 51 33
3.9645419 -0.56237566 -0.11708295 49 41
3.7501483 -0.89396262 -0.56054842 47 7
3.8910389 -0.68881553 -0.27311134 48 23
3.8019094 -0.90629381 -0.41998219 32 12
3.9090469 -0.69269431 -0.21925066 45 27
3.8070877 -0.90822977 -0.36587563 32 16
3.9214017 -0.69558084 -0.16472058 46 34
3.8212264 -0.91230547 -0.31249797 25 20
3.9331315 -0.69765335 -0.10987935 47 42
3.9774137 -0.58686537 -0.06189879 39 49
3.9876757 -0.58908087 -0.0062758895 44 57
3.866725 -0.68800849 -0.38087049 44 15
3.9972703 -0.59048915 0.049628042 50 65
3.8763738 -0.69041646 -0.32691839 46 19
3.8704646 -0.56083882 -0.44149306 50 11
3.9457219 -0.5737794 -0.1718256 53 33
3.957608 -0.57549649 -0.11693549 51 41
3.8886108 -0.70239353 -0.27311134 50 23
3.7938912 -0.91839057 -0.41944304 40 12
3.9066052 -0.70633525 -0.21925066 46 27
3.8087325 -0.92268479 -0.36634529 38 16
3.9189496 -0.70926487 -0.16472058 45 34
3.8180184 -0.9256385 -0.31249797 28 20
3.9306719 -0.71137834 -0.10987935 46 42
3.9753406 -0.60074556 -0.06189879 41 49
3.9905396 -0.60374027 -0.0062837442 43 57
3.8642998 -0.70150173 -0.38087049 47 15
3.87394 -0.70394331 -0.32691839 38 19
3.8684833 -0.57434589 -0.44149306 49 11
3.9387534 -0.58681756 -0.17160837 38 33
3.955575 -0.58930761 -0.11693549 42 41
3.8812294 -0.71506268 -0.27276343 48 23
3.7906623 -0.93162805 -0.41944304 43 12
3.8992054 -0.71906549 -0.21897244 37 27
3.8054883 -0.93597412 -0.36634529 50 16
3.91645 -0.72294027 -0.16472058 43 34
3.8147643 -0.93896025 -0.31249797 30 20
3.928165 -0.72509456 -0.10987935 45 42
3.9682782 -0.61385882 -0.061821125 25 49
3.9834659 -0.61690545 -0.0062758895 42 57
3.8618276 -0.71498632 -0.38087049 48 15
3.866559 -0.71655697 -0.32650086 37 19
3.8664551 -0.58784592 -0.44149306 40 11
3.9366813 -0.60056281 -0.17160837 41 33
3.9485526 -0.60236245 -0.11678803 34 41
3.8787098 -0.72860634 -0.27276343 44 23
3.7873869 -0.94485432 -0.41944304 49 12
3.8966718 -0.73267192 -0.21897244 34 27
3.8021979 -0.94925207 -0.36634529 54 16
3.9139025 -0.73660684 -0.16472058 39 34
3.8114631 -0.95227057 -0.31249797 38 20
3.9256098 -0.73880202 -0.10987935 35 42
3.9661114 -0.62770694 -0.061821125 20 49
3.9812884 -0.63080662 -0.0062758895 40 57
3.8544178 -0.72754264 -0.38038346 41 15
3.8640344 -0.73004937 -0.32650086 38 19
3.8643794 -0.60133874 -0.44149306 40 11
3.9345608 -0.61430073 -0.17160837 28 33
3.9414871 -0.61537546 -0.11664057 33 41
3.8761425 -0.74214107 -0.27276343 37 23
3.7840657 -0.95806903 -0.41944304 55 12
3.8891866 -0.74533302 -0.2186942 39 27
3.7988615 -0.96251839 -0.36634529 55 16
3.9113078 -0.75026441 -0.16472058 37 34
3.9589601 -0.64075333 -0.061743461 19 49
3.9790621 -0.64470005 -0.0062758895 72 57
3.8469677 -0.74005592 -0.3798964 33 15
3.8565695 -0.74259418 -0.32608333 33 19
3.8573501 -0.614048 -0.44092706 31 11
3.937326 -0.62881434 -0.1718256 28 33
3.9393148 -0.62913007 -0.11664057 31 41
3.8735285 -0.75566685 -0.27276343 30 23
3.7806983 -0.97127193 -0.41944304 58 12
3.8865614 -0.75890428 -0.2186942 31 27
3.7954783 -0.9757731 -0.36634529 58 16
3.8988581 -0.76200306 -0.16430356 26 34
3.9566994 -0.65456873 -0.061743461 22 49
3.8394766 -0.75252604 -0.37940937 30 15
3.8539538 -0.75605166 -0.32608333 29 19
3.8551831 -0.627509 -0.44092706 28 11
3.9252458 -0.6409536 -0.17139114 29 33
3.9370952 -0.64287704 -0.11664057 32 41
3.8659747 -0.76821458 -0.27241552 25 23
3.7724748 -0.98321021 -0.41890392 55 12
3.883889 -0.7724663 -0.2186942 29 27
3.7872322 -0.98776013 -0.36587563 45 16
3.9157751 -0.77949607 -0.16513759 20 34
3.9543903 -0.66837621 -0.061743461 24 49
3.8417075 -0.76689458 -0.3798964 40 15
3.8512914 -0.76949984 -0.32608333 27 19
3.8578703 -0.64177275 -0.44149306 35 11
3.9279122 -0.655469 -0.17160837 37 33
3.9348271 -0.65661621 -0.11664057 39 41
3.8681586 -0.78269053 -0.27276343 30 23
3.7642136 -0.99510276 -0.41836479 55 12
3.8762751 -0.78503132 -0.21841596 31 27
3.788574 -1.0022465 -0.36634529 49 16
3.8934433 -0.78920341 -0.16430356 32 34
3.9471059 -0.68132973 -0.061665796 29 49
3.843884 -0.78128779 -0.38038346 34 15
3.8485818 -0.78293866 -0.32608333 29 19
3.8556068 -0.65523535 -0.44149306 44 11
3.9256003 -0.66917592 -0.17160837 43 33
3.9374385 -0.67118245 -0.11678803 49 41
3.8654029 -0.79618818 -0.27276343 34 23
3.7703199 -1.0108094 -0.41944304 52 12
3.8784015 -0.79956192 -0.2186942 35 27
3.7802441 -1.0141758 -0.36587563 39 16
3.9053445 -0.80580795 -0.16492909 97 34
3.9447033 -0.69510353 -0.061665796 35 49
3.8362596 -0.79369587 -0.3798964 40 15
3.8458254 -0.79636794 -0.32608333 34 19
3.853296 -0.66868997 -0.44149306 48 11
3.9183185 -0.68202281 -0.17139114 47 33
3.9301469 -0.68407017 -0.11664057 49 41
3.8626003 -0.80967605 -0.27276343 42 23
3.752378 -1.0200543 -0.41782567 49 12
3.8707004 -0.81207335 -0.21841596 44 27
3.838336 -0.80810392 -0.38038346 44 15
3.847898 -0.81081152 -0.32650086 43 19
3.8509386 -0.68213636 -0.44149306 48 11
3.9159138 -0.69569612 -0.17139114 51 33
3.9277351 -0.69778478 -0.11664057 53 41
3.8597505 -0.82315409 -0.27276343 53 23
3.7583792 -1.0357863 -0.41890392 42 12
3.872725 -0.82661855 -0.2186942 46 27
3.8354919 -0.82149732 -0.38038346 48 15
3.8450444 -0.82423824 -0.32650086 51 19
3.8485339 -0.69557452 -0.44149306 50 11
3.9134617 -0.70936102 -0.17139114 47 33
3.9301941 -0.71237767 -0.11678803 51 41
3.8519785 -0.83556819 -0.27241552 51 23
3.8649366 -0.83907598 -0.21841596 96 27
3.8326008 -0.83488065 -0.38038346 49 15
3.8421438 -0.83765495 -0.32650086 51 19
3.8411961 -0.70810825 -0.44092706 48 11
3.9109619 -0.72301716 -0.17139114 41 33
3.9227684 -0.72518831 -0.11664057 50 41
3.8490384 -0.84900898 -0.27241552 50 23
3.8668597 -0.85363489 -0.2186942 95 27
3.8248041 -0.84718102 -0.3798964 51 15
3.8294661 -0.8489114 -0.3256658 53 19
3.838701 -0.7215122 -0.44092706 38 11
3.9084139 -0.73666465 -0.17139114 31 33
3.8460512 -0.86243945 -0.27241552 42 23
3.8218236 -0.86052692 -0.3798964 42 15
3.8264794 -0.86227357 -0.3256658 34 19
3.831279 -0.73397732 -0.44036102 39 11
3.9058189 -0.75030309 -0.17139114 28 33
3.8381534 -0.87475431 -0.27206761 37 23
3.8187964 -0.87386233 -0.3798964 39 15
3.8234463 -0.87562519 -0.3256658 43 19
3.8286936 -0.74734652 -0.44036102 29 11
3.8982728 -0.76297748 -0.17117392 27 33
3.8350766 -0.88814664 -0.27206761 38 23
3.8060274 -0.88493979 -0.37892231 38 15
3.8155129 -0.88784027 -0.3252483 30 19
3.8260615 -0.7607066 -0.44036102 39 11
3.9004858 -0.77755225 -0.17139114 30 33
3.8270972 -0.90038919 -0.27171969 93 23
3.8077588 -0.89936054 -0.37940937 30 15
3.8172402 -0.9022963 -0.3256658 27 19
3.8233829 -0.77405739 -0.44036102 38 11
3.8928514 -0.79017371 -0.17117392 89 33
3.8045964 -0.91264653 -0.37940937 33 15
3.8140674 -0.9156155 -0.3256658 30 19
3.8206577 -0.78739882 -0.44036102 46 11
3.8013875 -0.92592156 -0.37940937 39 15
3.81569 -0.9301002 -0.32608333 33 19
3.8227489 -0.80174559 -0.44092706 50 11
3.7981322 -0.9391852 -0.37940937 46 15
3.8075824 -0.94222021 -0.3256658 32 19
3.819927 -0.81508464 -0.44092706 49 11
3.7948308 -0.9524374 -0.37940937 51 15
3.8091035 -0.95671588 -0.32608333 95 19
3.8122025 -0.82736474 -0.44036102 51 11
3.7914829 -0.9656781 -0.37940937 53 15
3.8092914 -0.84066671 -0.44036102 50 11
3.788089 -0.97890699 -0.37940937 52 15
3.8063338 -0.85395855 -0.44036102 42 11
3.7846489 -0.9921239 -0.37940937 50 15
3.8033297 -0.86723995 -0.44036102 40 11
3.7811627 -1.0053287 -0.37940937 96 15
3.7954388 -0.87939405 -0.43979502 32 11
3.7971826 -0.89377087 -0.44036102 33 11
3.7940395 -0.90701997 -0.44036102 39 11
3.7860217 -0.91909087 -0.43979502 48 11
3.7876151 -0.93348509 -0.44036102 49 11
3.7843332 -0.94670063 -0.44036102 51 11
3.7810056 -0.95990467 -0.44036102 44 11
3.777632 -0.97309691 -0.44036102 42 11
3.7742124 -0.98627746 -0.44036102 40 11
3.7755499 -1.0007141 -0.44092706 38 11
3.9827321 -0.10193405 -0.23386818 48 26
3.9637501 -0.11527718 -0.28787321 54 22
3.9823518 -0.11583576 -0.23386818 48 26
3.9583399 -0.12894547 -0.28750789 56 22
3.9869118 -0.12990329 -0.23416384 49 26
3.9628487 -0.14294635 -0.28787321 54 22
3.981446 -0.14363478 -0.23386818 49 26
3.999274 -0.14499366 -0.17939943 64 32
3.9530368 -0.15571102 -0.34159002 40 18
3.9573433 -0.15657653 -0.28750789 43 22
3.9809206 -0.15753172 -0.23386818 46 26
3.9987435 -0.15895286 -0.17939943 47 32
3.9474928 -0.16929062 -0.34115598 40 18
3.9567723 -0.17038928 -0.28750789 41 22
3.9803462 -0.17142679 -0.23386818 44 26
4.0031543 -0.17313059 -0.17962538 49 32
3.946878 -0.18306892 -0.34115598 46 18
3.9561536 -0.18419996 -0.28750789 42 22
3.9847093 -0.18555659 -0.23416384 41 26
4.0025253 -0.18710314 -0.17962538 42 32
3.9462149 -0.19684495 -0.34115598 20 18
3.9554865 -0.19800839 -0.28750789 47 22
3.9790525 -0.19921044 -0.23386818 29 26
4.0018477 -0.20107342 -0.17962538 27 32
3.9455037 -0.21061863 -0.34115598 23 18
3.9547713 -0.2118144 -0.28750789 28 22
3.978333 -0.2130987 -0.23386818 14 26
4.0061092 -0.21531399 -0.17985132 23 32
4.0131822 -0.21640325 -0.12447725 43 40
3.9296455 -0.22282837 -0.39546052 40 14
3.9347987 -0.22381452 -0.34028789 23 18
3.9540079 -0.22561786 -0.28750789 27 22
3.9775646 -0.22698438 -0.23386818 20 26
4.0053329 -0.22929662 -0.17985132 20 32
4.0124021 -0.23041055 -0.12447725 42 40
3.9238787 -0.23624037 -0.39495611 35 14
3.9389656 -0.23785312 -0.34072194 23 18
3.9482191 -0.23911236 -0.28714254 32 22
3.9767485 -0.24086729 -0.23386818 20 26
4.0045085 -0.24327643 -0.17985132 28 32
4.0115733 -0.24441504 -0.12447725 52 40
3.9279943 -0.25025684 -0.39546052 46 14
3.9381111 -0.25160125 -0.34072194 25 18
3.9523363 -0.2532163 -0.28750789 33 22
3.980864 -0.2550711 -0.23416384 29 26
4.0036349 -0.25725329 -0.17985132 30 32
4.0106959 -0.25841656 -0.12447725 51 40
3.9221342 -0.26362824 -0.39495611 51 14
3.9421782 -0.26568595 -0.34115598 42 18
3.9564033 -0.26735187 -0.28787321 47 22
3.9799495 -0.26896533 -0.23416384 32 26
4.0027122 -0.27122703 -0.17985132 37 32
4.0097694 -0.27241492 -0.12447725 49 40
4.0310655 -0.2738817 -0.069198549 41 48
3.998642 -0.1558239 -0.18632104 51 31
3.9162278 -0.27696174 -0.39445171 54 14
3.941227 -0.27944508 -0.34115598 46 18
3.9604199 -0.28151897 -0.28823853 48 22
3.9789865 -0.28285635 -0.23416384 40 26
4.0017414 -0.28519744 -0.17985132 52 32
4.0087938 -0.28640997 -0.12447725 49 40
4.0250993 -0.28759018 -0.069112159 43 48
3.9980738 -0.16978082 -0.18632104 49 31
3.9201977 -0.29100326 -0.39495611 47 14
3.9402275 -0.29320082 -0.34115598 47 18
3.9544404 -0.29496604 -0.28787321 49 22
3.9729977 -0.29636785 -0.23386818 45 26
3.9957404 -0.29878727 -0.17962538 46 32
4.0077701 -0.30040154 -0.12447725 43 40
4.0290556 -0.30201694 -0.069198549 42 48
3.9974568 -0.18373567 -0.18632104 46 31
3.987639 -0.074957915 -0.24796119 43 25
3.9191582 -0.30468553 -0.39495611 42 14
3.9342141 -0.30656129 -0.34072194 36 18
3.9484158 -0.30837485 -0.28750789 44 22
3.9719388 -0.31023443 -0.23386818 41 26
3.9996529 -0.31312767 -0.17985132 42 32
4.0066967 -0.31438944 -0.12447725 45 40
4.0229931 -0.31568342 -0.069112159 29 48
4.0017796 -0.19793834 -0.18655568 34 31
3.9873531 -0.088876918 -0.24796119 57 25
3.9131131 -0.31795648 -0.39445171 37 14
3.9331205 -0.32029241 -0.34072194 23 18
3.9473152 -0.32215554 -0.28750789 39 22
3.9708319 -0.32409722 -0.23386818 38 26
3.9985356 -0.32708719 -0.17985132 41 32
4.0055752 -0.32837349 -0.12447725 43 40
4.0218668 -0.32972437 -0.069112159 23 48
4.0423136 -0.3321301 -0.013331365 42 56
3.9960766 -0.21163847 -0.18632104 20 31
4.013258 -0.21255998 -0.13142881 52 39
3.9820302 -0.10266421 -0.24764812 42 25
3.9119792 -0.33161384 -0.39445171 31 14
3.9319782 -0.33401963 -0.34072194 20 18
