# .PCD v0.7 - Point Cloud Data file format
VERSION 0.7
FIELDS x y z intensity ring
SIZE 4 4 4 4 2
TYPE F F F F U
COUNT 1 1 1 1 1
WIDTH 1228
HEIGHT 1
VIEWPOINT 0 0 0 1 0 0 0
POINTS 1228
DATA ascii
3.4395161 0.092794031 -0.18975756 29 27
3.4618239 0.092808612 -0.14303584 55 34
3.4801114 0.19447148 -0.053588662 34 49
3.4137282 0.089693241 -0.33070469 30 15
3.4180305 0.089212671 -0.28349629 31 19
3.4033184 0.19903697 -0.38432539 33 11
3.4469407 0.1998252 -0.14858243 52 33
3.4536684 0.20022254 -0.10100985 36 41
3.3930705 -0.11902522 -0.49302122 52 7
3.426852 0.081071101 -0.23658052 31 23
3.4042878 -0.11941694 -0.36553004 54 12
3.4398191 0.080787323 -0.18975756 31 27
3.4140205 0.077776566 -0.33070469 30 15
3.4183211 0.077280983 -0.28349629 31 19
3.4089525 0.18743412 -0.38489139 54 11
3.4476173 0.18779191 -0.14858243 57 33
3.4543462 0.18816577 -0.10100985 49 41
3.3876905 -0.13067861 -0.49229512 42 7
3.4271138 0.069108665 -0.23658052 43 23
3.4038501 -0.13129939 -0.36553004 48 12
3.4450712 0.0688833 -0.19003581 32 27
3.4142714 0.06585893 -0.33070469 34 15
3.4185698 0.065348342 -0.28349629 39 19
3.4046252 0.17527266 -0.38432539 50 11
3.4482517 0.17575634 -0.14858243 56 33
3.454982 0.17610671 -0.10100985 67 41
3.4273343 0.057145387 -0.23658052 44 23
3.3984046 -0.1429721 -0.36499095 46 12
3.4402995 0.056771077 -0.18975756 38 27
3.4144804 0.053940497 -0.33070469 36 15
3.4237587 0.053496644 -0.28391379 43 19
3.405216 0.16338722 -0.38432539 47 11
3.4538336 0.1639609 -0.14879967 52 33
3.4555757 0.1640455 -0.10100985 49 41
3.4275129 0.045181409 -0.23658052 43 23
3.3929188 -0.15460837 -0.3644518 66 12
3.45046 0.044899508 -0.19031404 54 27
3.4146478 0.042021412 -0.33070469 40 15
3.4239249 0.041545171 -0.28391379 46 19
3.4057658 0.15149982 -0.38432539 53 11
3.4493949 0.15167892 -0.14858243 53 33
3.4326375 0.033269115 -0.23692843 47 23
3.4197495 0.030149575 -0.33119175 42 15
3.4240489 0.029593192 -0.28391379 45 19
3.4062738 0.13961056 -0.38432539 47 11
3.4499032 0.13963735 -0.14858243 46 33
3.4327326 0.021286773 -0.23692843 58 23
3.4198339 0.01821224 -0.33119175 59 15
3.4291141 0.017670419 -0.28433132 58 19
3.4067404 0.12771958 -0.38432539 36 11
3.4553611 0.12778412 -0.14879967 38 33
3.4327857 0.0093041714 -0.23692843 42 23
3.4149005 0.0062616523 -0.33070469 52 15
3.4241722 0.0056882924 -0.28391379 52 19
3.4071655 0.11582706 -0.38432539 30 11
3.450794 0.11554929 -0.14858243 36 33
3.4377851 -0.002679022 -0.23727635 67 23
3.4149017 -0.0056590876 -0.33070469 43 15
3.4191885 -0.0062595904 -0.28349629 49 19
3.4075489 0.10393314 -0.38432539 32 11
3.4148612 -0.017579284 -0.33070469 30 15
3.4191461 -0.018194748 -0.28349629 35 19
3.4128568 0.09217751 -0.38489139 30 11
3.4098027 -0.029460182 -0.33021763 31 15
3.4140792 -0.030089682 -0.28307876 31 19
3.4131577 0.080263853 -0.38489139 31 11
3.4096789 -0.041362435 -0.33021763 30 15
3.4139535 -0.042006858 -0.28307876 32 19
3.4084506 0.068244316 -0.38432539 33 11
3.409514 -0.053264182 -0.33021763 29 15
3.4088039 -0.05384874 -0.28266123 34 19
3.408668 0.056346193 -0.38432539 37 11
3.4093072 -0.065165281 -0.33021763 30 15
3.4088438 0.044447374 -0.38432539 43 11
3.4090588 -0.077065587 -0.33021763 32 15
3.4139457 0.032600909 -0.38489139 49 11
3.4037948 -0.088839047 -0.3297306 29 15
3.4140387 0.020683814 -0.38489139 60 11
3.408438 -0.10086323 -0.33021763 66 15
3.4140902 0.0087664705 -0.38489139 54 11
3.4140999 -0.0031509812 -0.38489139 45 11
3.4091003 -0.015052396 -0.38432539 33 11
3.4090271 -0.026952285 -0.38432539 32 11
3.4089122 -0.038851846 -0.38432539 31 11
3.4087558 -0.05075093 -0.38432539 32 11
3.4085579 -0.062649406 -0.38432539 32 11
3.4083185 -0.074547112 -0.38432539 33 11
3.4080377 -0.086443901 -0.38432539 54 11
3.4077148 -0.098339647 -0.38432539 58 11
3.407351 -0.1102342 -0.38432539 61 11
3.4069457 -0.1221274 -0.38432539 53 11
3.4064982 -0.13401911 -0.38432539 52 11
3.4060099 -0.14590919 -0.38432539 39 11
3.3516815 0.78257507 -0.24951448 48 22
3.3446701 0.76864761 -0.24878383 51 22
3.3570631 0.75915706 -0.24951448 52 22
3.3412974 0.74397463 -0.29514766 48 18
3.3499548 0.74527884 -0.24878383 54 22
3.3438742 0.73230678 -0.29514766 54 18
3.352536 0.73358083 -0.24878383 54 22
3.379992 0.73955715 -0.20282373 43 26
3.3464098 0.72063005 -0.29514766 56 18
3.3550763 0.72187382 -0.24878383 47 22
3.3825529 0.72775429 -0.20282373 43 26
3.3489048 0.70894444 -0.29514766 57 18
3.3575754 0.71015799 -0.24878383 47 22
3.380188 0.71491504 -0.20252807 45 26
3.3516917 0.69792926 -0.34350589 50 14
3.3464816 0.69624108 -0.29471362 42 18
3.3600342 0.69843352 -0.24878383 43 22
3.3826632 0.70311153 -0.20252807 45 26
3.3443582 0.68424195 -0.34249708 41 14
3.3488915 0.68455541 -0.29471362 39 18
3.3673384 0.68769306 -0.24914914 41 22
3.3850968 0.69129962 -0.20252807 40 26
3.4072425 0.69517785 -0.15567532 39 32
3.351604 0.67353845 -0.34300148 20 14
3.3561454 0.67383659 -0.29514766 37 18
3.3648281 0.67495924 -0.24878383 50 22
3.3874893 0.67947918 -0.20252807 25 26
3.4047499 0.68230385 -0.15544938 49 32
3.353935 0.66183507 -0.34300148 23 14
3.3535891 0.66115928 -0.29471362 32 18
3.3671637 0.66320968 -0.24878383 45 22
3.3849423 0.66669124 -0.20223241 17 26
3.4120128 0.67137408 -0.15567532 42 32
3.3464551 0.64824229 -0.34199265 23 14
3.3558762 0.64944905 -0.29471362 23 18
3.3694582 0.65145206 -0.24878383 23 22
3.3872488 0.65487158 -0.20223241 17 26
3.4143355 0.65945977 -0.15567532 40 32
3.3486977 0.6365571 -0.34199265 25 14
3.3581231 0.6377309 -0.29471362 30 18
3.3717115 0.63968647 -0.24878383 23 22
3.394419 0.64396888 -0.20252807 18 26
3.4166167 0.64753759 -0.15567532 48 32
3.4234471 0.64820564 -0.10776575 37 40
3.3508992 0.6248641 -0.34199265 28 14
3.3603284 0.62600493 -0.29471362 29 18
3.373924 0.62791312 -0.24878383 23 22
3.3966463 0.6321162 -0.20252807 23 26
3.4188561 0.63560736 -0.15567532 36 32
3.4256892 0.63625169 -0.10776575 51 40
3.3579543 0.61405289 -0.34249708 28 14
3.3673942 0.61516118 -0.29514766 31 18
3.3760953 0.61613208 -0.24878383 29 22
3.3939207 0.6193651 -0.20223241 23 26
3.4210541 0.62366945 -0.15567532 38 32
3.4278893 0.62428993 -0.10776575 54 40
3.3600774 0.60232776 -0.34249708 30 14
3.3695209 0.60340303 -0.29514766 39 18
3.3782256 0.60434359 -0.24878383 33 22
3.4009764 0.60838795 -0.20252807 28 26
3.428128 0.61259735 -0.15590125 52 32
3.4300475 0.61232054 -0.10776575 55 40
3.4040923 0.70954931 -0.16168159 35 31
3.3572588 0.58973992 -0.34199265 30 14
3.3666999 0.59078199 -0.29471362 51 18
3.385227 0.59340334 -0.24914914 44 22
3.4030793 0.59651262 -0.20252807 30 26
3.4302456 0.60062718 -0.15590125 54 32
3.432164 0.60034376 -0.10776575 52 40
3.467793 0.60653639 -0.060213968 34 48
3.4065485 0.69766247 -0.16168159 53 31
3.351043 0.78208053 -0.26140168 54 21
3.3642006 0.57885551 -0.34249708 44 14
3.3687415 0.5790264 -0.29471362 48 18
3.3823621 0.58074462 -0.24878383 49 22
3.4051406 0.58463001 -0.20252807 45 26
3.4323211 0.58864975 -0.15590125 57 32
3.4342389 0.58835959 -0.10776575 46 40
3.4600329 0.59275007 -0.060041185 47 48
3.408963 0.68576717 -0.16168159 41 31
3.3391743 0.76703691 -0.26025349 58 21
3.3612943 0.56628764 -0.34199265 52 14
3.3707421 0.56726378 -0.29471362 52 18
3.3843689 0.56893444 -0.24878383 49 22
3.4071608 0.57274032 -0.20252807 47 26
3.4294283 0.57584333 -0.15567532 51 32
3.4362714 0.57636827 -0.10776575 45 40
3.4670122 0.5814904 -0.060127579 39 48
3.4113359 0.67386347 -0.16168159 44 31
3.356421 0.75866699 -0.26140168 59 21
3.3632505 0.55455112 -0.34199265 42 14
3.3727016 0.55549425 -0.29471362 48 18
3.3863342 0.55711728 -0.24878383 45 22
3.4042132 0.56003869 -0.20223241 42 26
3.4314175 0.56386882 -0.15567532 51 32
3.4382625 0.56436992 -0.10776575 43 40
3.4640865 0.56858027 -0.060041185 33 48
3.4136677 0.66195166 -0.16168159 38 31
3.4253681 0.66421115 -0.11394894 17 39
3.3444476 0.74370652 -0.26025349 58 21
3.3624179 0.747078 -0.21383524 57 25
3.3651655 0.54280776 -0.34199265 37 14
3.37462 0.54371798 -0.29471362 39 18
3.3882582 0.54529339 -0.24878383 36 22
3.4061475 0.54815239 -0.20223241 29 26
3.4333649 0.55188751 -0.15567532 45 32
3.4402118 0.55236471 -0.10776575 33 40
3.3460872 0.74100679 -0.30801255 12 17
3.4611135 0.55569768 -0.0599548 28 48
3.4814541 0.55831796 -0.011573747 35 56
3.4159572 0.65003163 -0.16168159 34 31
3.4276655 0.65225029 -0.11394894 41 39
3.3468621 0.63633329 -0.40492365 54 10
3.3518944 0.7330907 -0.26063624 43 21
3.3698809 0.73639953 -0.21414831 61 25
3.3719547 0.53182745 -0.34249708 20 14
3.3764975 0.53193504 -0.29471362 31 18
3.3901408 0.53346282 -0.24878383 47 22
3.40804 0.53625935 -0.20223241 17 26
3.4352703 0.53989953 -0.15567532 36 32
3.4421189 0.54035276 -0.10776575 38 40
3.3486531 0.72932225 -0.30801255 58 17
3.463032 0.54361272 -0.0599548 21 48
3.4833815 0.54616201 -0.011573747 39 56
3.4182055 0.63810372 -0.16168159 33 31
3.4299214 0.6402815 -0.11394894 50 39
3.3393011 0.62283391 -0.40373093 49 10
3.3495584 0.72034001 -0.26025349 50 21
3.372431 0.72463197 -0.21414831 43 25
3.3688731 0.51930141 -0.34199265 25 14
3.3783338 0.5201456 -0.29471362 30 18
3.3919823 0.52162582 -0.24878383 39 22
3.4148252 0.52511311 -0.20252807 17 26
3.4371343 0.52790487 -0.15567532 37 32
3.443984 0.52833426 -0.10776575 23 40
3.3463087 0.71658844 -0.30756024 43 17
3.4649084 0.53152126 -0.0599548 17 48
3.4803236 0.53324741 -0.011557166 49 56
3.4204118 0.62616813 -0.16168159 36 31
3.4321353 0.62830496 -0.11394894 49 39
3.3561068 0.61384177 -0.40551996 64 10
3.3520522 0.7086435 -0.26025349 43 21
3.3700571 0.71182656 -0.21383524 42 25
3.3706653 0.50753874 -0.34199265 23 14
3.3752019 0.50761443 -0.29427958 25 18
3.3888505 0.50904697 -0.2484185 23 22
3.4117007 0.51245385 -0.20223241 20 26
3.4389558 0.51590383 -0.15567532 33 32
3.4408641 0.51557404 -0.10760957 24 40
3.3536632 0.70592666 -0.30801255 43 17
3.4667428 0.51942313 -0.0599548 20 48
3.4871097 0.52183038 -0.011573747 37 56
3.491878 0.52253878 0.03720884 40 64
3.4225769 0.61422485 -0.16168159 52 31
3.4293883 0.61544186 -0.11378404 47 39
3.3435678 0.5995062 -0.40373093 49 10
3.4614413 0.61368942 -0.066200323 34 47
3.3593872 0.69795018 -0.26063624 43 21
3.3774078 0.70107043 -0.21414831 41 25
3.3724165 0.49576983 -0.34199265 25 14
3.3897905 0.7036348 -0.16695724 49 30
3.3818827 0.49654791 -0.29471362 28 18
3.3955414 0.49793276 -0.24878383 23 22
3.4134688 0.50054169 -0.20223241 23 26
3.4407356 0.50389647 -0.15567532 36 32
3.3514502 0.69386488 -0.35532886 43 13
3.4426427 0.50356001 -0.10760957 23 40
3.3463533 0.69220316 -0.30710796 42 17
3.4685347 0.50731879 -0.0599548 23 48
3.4790134 0.50821996 -0.011540584 38 56
3.4936807 0.51034659 0.03720884 38 64
3.4247003 0.60227406 -0.16168159 61 31
3.4364383 0.60432905 -0.11394894 42 39
3.3505301 0.58868653 -0.40432727 46 10
3.4586363 0.60075116 -0.066105209 51 47
3.3618033 0.68621945 -0.26063624 43 21
3.3798342 0.68927681 -0.21414831 35 25
3.3741264 0.4839949 -0.34199265 30 14
3.3922257 0.69179797 -0.16695724 43 30
3.3835955 0.4847399 -0.29471362 31 18
3.3923216 0.48537615 -0.2484185 28 22
3.4151952 0.48862338 -0.20223241 25 26
3.4424736 0.49188301 -0.15567532 36 32
3.3538518 0.68216193 -0.35532886 48 13
3.4493277 0.49224061 -0.10776575 29 40
3.3487494 0.68051803 -0.30710796 42 17
3.4702847 0.49520826 -0.0599548 28 48
3.4807661 0.49607283 -0.011540584 53 56
3.4904904 0.49744815 0.03715561 52 64
3.4267817 0.59031594 -0.16168159 49 31
3.4336011 0.59148532 -0.11378404 58 39
3.3525646 0.57698745 -0.40432727 43 10
3.4607122 0.5886746 -0.066105209 54 47
3.3641777 0.67448038 -0.26063624 43 21
3.3822196 0.67747486 -0.21414831 28 25
3.3807228 0.47289771 -0.34249708 28 14
3.3995173 0.68093127 -0.16720064 46 30
3.3902006 0.47360978 -0.29514766 37 18
3.393995 0.47353178 -0.2484185 33 22
3.4168799 0.47669917 -0.20223241 28 26
3.4441698 0.47986355 -0.15567532 49 32
3.3513358 0.66947871 -0.35480705 17 13
3.4460745 0.47951379 -0.10760957 30 40
3.3511045 0.66882455 -0.30710796 34 17
3.471992 0.48309171 -0.0599548 30 48
3.4824765 0.48391962 -0.011540584 49 56
3.4922056 0.48526102 0.03715561 52 64
3.4288213 0.57835066 -0.16168159 41 31
3.4356451 0.5794962 -0.11378404 42 39
3.3545582 0.56528121 -0.40432727 43 10
3.4627459 0.57659084 -0.066105209 43 47
3.3665118 0.66273314 -0.26063624 32 21
3.3796673 0.66470379 -0.21383524 20 25
3.3823531 0.46109396 -0.34249708 30 14
3.4018738 0.66906053 -0.16720064 43 30
3.3918333 0.46177289 -0.29514766 52 18
3.4284716 0.67365742 -0.12014922 23 38
3.4005694 0.46234807 -0.24878383 41 22
3.4185233 0.46476912 -0.20223241 29 26
3.4458239 0.4678382 -0.15567532 53 32
3.3585327 0.65873122 -0.35532886 25 13
3.4526799 0.46814796 -0.10776575 33 40
3.3534184 0.65712291 -0.30710796 29 17
3.4736569 0.47096926 -0.0599548 30 48
3.4841447 0.4717606 -0.011540584 49 56
3.4889231 0.47240242 0.037102379 55 64
3.4308193 0.56637836 -0.16168159 41 31
3.4376469 0.56750005 -0.11378404 41 39
3.3565109 0.55356818 -0.40432727 43 10
3.4598031 0.56370002 -0.066010095 25 47
3.3639092 0.65003419 -0.26025349 27 21
3.4850564 0.56779468 -0.017690198 35 55
3.386867 0.65384614 -0.21414831 20 25
3.3790097 0.44863522 -0.34199265 51 14
3.3992844 0.6562373 -0.16695724 39 30
3.3884859 0.44928104 -0.29471362 51 18
3.4258952 0.66074169 -0.11997559 47 38
3.4021628 0.45047504 -0.24878383 49 22
3.4201248 0.45283341 -0.20223241 44 26
3.4474359 0.45580721 -0.15567532 54 32
3.3510447 0.64512819 -0.3542853 20 13
3.449338 0.45544416 -0.10760957 43 40
3.3556919 0.64541328 -0.30710796 25 17
3.4703228 0.45819196 -0.059868407 36 48
3.48577 0.4595958 -0.011540584 47 56
3.4905505 0.46022093 0.037102379 43 64
3.4327755 0.55439907 -0.16168159 41 31
3.4948175 0.45953798 0.08587724 34 70
3.4396071 0.55549699 -0.11378404 41 39
3.3633246 0.54263532 -0.40492365 47 10
3.4617498 0.55161965 -0.066010095 21 47
3.3710568 0.63921446 -0.26063624 21 21
3.482079 0.55484307 -0.017664891 50 55
3.3891287 0.64201981 -0.21414831 17 25
3.3805552 0.43683755 -0.34199265 52 14
3.4113688 0.64622211 -0.16744401 31 30
3.3900337 0.43745029 -0.29471362 55 18
3.4281807 0.64877898 -0.11997559 58 38
3.4037144 0.43859655 -0.24878383 51 22
3.4216845 0.44089222 -0.20223241 48 26
3.4490061 0.44377062 -0.15567532 54 32
3.353276 0.63342696 -0.3542853 34 13
3.4509068 0.44340098 -0.10760957 49 40
3.3579242 0.63369578 -0.30710796 25 17
3.4768603 0.44670728 -0.0599548 45 48
3.4873531 0.4474254 -0.011540584 47 56
3.4871764 0.44740292 0.037049148 43 64
3.4346895 0.54241312 -0.16168159 40 31
3.4964001 0.44733599 0.08587724 43 70
3.441525 0.54348713 -0.11378404 38 39
3.3651984 0.53089184 -0.40492365 33 10
3.4587138 0.5387668 -0.065914974 23 47
3.3732674 0.62744337 -0.26063624 31 21
3.4839942 0.54268497 -0.017664891 42 55
3.3913491 0.6301856 -0.21414831 23 25
3.3869958 0.4256494 -0.34249708 41 14
3.4136035 0.63431025 -0.16744401 29 30
3.3915398 0.42561421 -0.29471362 56 18
3.4304245 0.63680851 -0.11997559 44 38
3.4052246 0.42671269 -0.24878383 51 22
3.4281559 0.42956081 -0.20252807 42 26
3.3135836 0.61397803 -0.41821092 58 9
3.4455767 0.43111384 -0.15544938 51 32
3.3554666 0.62171799 -0.3542853 25 13
3.4524336 0.43135235 -0.10760957 34 40
3.360116 0.62197059 -0.30710796 28 17
3.4783986 0.43456805 -0.0599548 43 48
3.4888937 0.43524951 -0.011540584 47 56
3.4887168 0.43522763 0.037049148 36 64
3.4365623 0.53042048 -0.16168159 39 31
3.4929793 0.43451676 0.085754201 43 70
3.4434011 0.53147066 -0.11378404 25 39
3.3670311 0.51914185 -0.40492365 27 10
3.4655163 0.52743882 -0.066010095 20 47
3.3803418 0.61655688 -0.26101893 32 21
3.4809241 0.52977175 -0.017639583 38 55
3.3935282 0.61834383 -0.21414831 23 25
3.3884611 0.41382399 -0.34249708 37 14
3.4108834 0.62149775 -0.16720064 32 30
3.3930051 0.41377294 -0.29471362 44 18
3.4326265 0.62483019 -0.11997559 56 38
3.4017427 0.41422626 -0.2484185 48 22
3.4246793 0.4169938 -0.20223241 32 26
3.3108251 0.60152328 -0.41758859 69 9
3.4520199 0.4196814 -0.15567532 49 32
3.3576164 0.61000144 -0.3542853 28 13
3.4539182 0.41929847 -0.10760957 39 40
3.3671663 0.61112475 -0.30756024 32 17
3.4798942 0.42242351 -0.0599548 28 48
3.4854274 0.42247197 -0.011524003 45 56
3.4951787 0.42364338 0.037102379 32 64
3.4334536 0.51768059 -0.16144693 35 31
3.499438 0.42291579 0.08587724 32 70
3.4452355 0.51944774 -0.11378404 20 39
3.4445436 0.62264735 -0.071961343 17 46
3.3688228 0.50738555 -0.40492365 27 10
3.3969231 0.71701175 -0.17344055 50 29
3.4673364 0.51533866 -0.066010095 20 47
3.3775654 0.6038785 -0.26063624 39 21
3.4827521 0.51761782 -0.017639583 37 55
3.3956659 0.60649443 -0.21414831 28 25
3.3898849 0.40199351 -0.34249708 23 14
3.4876962 0.51772672 0.031064704 51 63
3.4130323 0.60958779 -0.16720064 42 30
3.3944285 0.40192661 -0.29471362 36 18
3.4298666 0.61196876 -0.11980196 59 38
3.4031675 0.40234947 -0.2484185 47 22
3.4261136 0.4050369 -0.20223241 17 26
3.3275585 0.59256506 -0.41945559 63 9
3.4485025 0.40704888 -0.15544938 39 32
3.3646212 0.5991469 -0.35480705 30 13
3.4553609 0.4072395 -0.10760957 33 40
3.3692791 0.59936738 -0.30756024 36 17
3.4813478 0.41027385 -0.0599548 25 48
3.4868808 0.410303 -0.011524003 36 56
3.4966359 0.41144037 0.037102379 19 64
3.4352396 0.50569248 -0.16144693 30 31
3.4959276 0.41012076 0.085754201 21 70
3.4470274 0.50741845 -0.11378404 26 39
3.4516189 0.61148965 -0.072065189 46 46
3.3705733 0.49562308 -0.40492365 28 10
3.389626 0.70312291 -0.17293637 34 29
3.4641662 0.50251842 -0.065914974 23 47
3.3796527 0.59208494 -0.26063624 61 21
3.479589 0.50474364 -0.017614275 37 55
3.4026785 0.59549558 -0.2144614 45 25
3.39621 0.39072129 -0.34300148 25 14
3.4894822 0.50554925 0.031064704 43 63
3.420059 0.59852898 -0.16744401 53 30
3.4007599 0.39063838 -0.29514766 31 18
3.4319818 0.59999263 -0.11980196 58 38
3.4045513 0.39046773 -0.2484185 41 22
3.4225476 0.39251179 -0.20193675 20 26
3.3344948 0.58179647 -0.42007795 49 9
3.4499025 0.39500886 -0.15544938 47 32
3.3617935 0.58654612 -0.3542853 31 13
3.4517951 0.39461327 -0.10745338 29 40
3.3664446 0.58675015 -0.30710796 52 17
3.4777906 0.39755669 -0.059868407 20 48
3.4882917 0.39812905 -0.011524003 43 56
3.4980509 0.39923233 0.037102379 23 64
3.4369836 0.49369812 -0.16144693 32 31
3.4923708 0.39735541 0.085631169 28 70
3.4487777 0.49538296 -0.11378404 29 39
3.4488063 0.59858489 -0.071961343 43 46
3.3722827 0.48385459 -0.40492365 28 10
3.4018459 0.6932795 -0.17344055 53 29
3.4708495 0.49111971 -0.066010095 31 47
3.3816988 0.58028412 -0.26063624 49 21
3.4813297 0.49259448 -0.017614275 46 55
3.3998175 0.58277357 -0.21414831 45 25
3.3926086 0.37831804 -0.34249708 28 14
3.4862742 0.49266973 0.031020198 58 63
3.4172049 0.58574563 -0.16720064 54 30
3.4021027 0.37876514 -0.29514766 31 18
3.4389813 0.5888502 -0.11997559 58 38
3.4058936 0.37858126 -0.2484185 25 22
3.4238968 0.38056248 -0.20193675 20 26
3.3365052 0.57015342 -0.42007795 49 9
3.4512603 0.38296402 -0.15544938 36 32
3.3638201 0.57480776 -0.3542853 45 13
3.4531517 0.38256186 -0.10745338 20 40
3.3684723 0.5749954 -0.30710796 42 17
3.4791574 0.38541454 -0.059868407 20 48
3.4896603 0.38595018 -0.011524003 29 56
3.4944537 0.38647515 0.037049148 20 64
3.4386861 0.48169783 -0.16144693 39 31
3.4937367 0.38516238 0.085631169 20 70
3.4504859 0.48334149 -0.11378404 32 39
3.4508748 0.58654267 -0.071961343 39 46
3.3739512 0.47208017 -0.40492365 31 10
3.3993485 0.68042129 -0.17318846 39 29
3.4112127 0.68279415 -0.12503633 20 37
3.4725428 0.47900122 -0.066010095 30 47
3.3837042 0.5684762 -0.26063624 47 21
3.4830282 0.48043939 -0.017614275 51 55
3.4067526 0.57172602 -0.2144614 35 25
3.3939085 0.36647335 -0.34249708 29 14
3.4879727 0.48049736 0.031020198 55 63
3.4192283 0.5738138 -0.16720064 51 30
3.3984513 0.36635885 -0.29471362 29 18
3.4360869 0.57601845 -0.11980196 46 38
3.4071944 0.36669016 -0.2484185 25 22
3.4252045 0.36860853 -0.20193675 23 26
3.3335814 0.5576871 -0.41945559 49 9
3.4525759 0.37091458 -0.15544938 36 32
3.3658063 0.56306231 -0.3542853 52 13
3.4544661 0.37050578 -0.10745338 23 40
3.3704588 0.56323373 -0.30710796 54 17
3.4804816 0.37326765 -0.059868407 23 48
3.4860144 0.37323967 -0.011507422 33 56
3.4957814 0.37427488 0.037049148 25 64
3.4403467 0.4696916 -0.16144693 58 31
3.5000308 0.37348968 0.085754201 29 70
3.4521523 0.47129408 -0.11378404 40 39
3.4578328 0.57531154 -0.072065189 37 46
3.3755784 0.46029997 -0.40492365 32 10
3.4782217 0.57869416 -0.023755983 25 54
3.4017031 0.66855121 -0.17318846 32 29
3.4233816 0.67280829 -0.12539928 47 37
3.3405051 0.75716865 -0.27208531 57 20
3.3584843 0.7612468 -0.22573112 48 24
3.4692383 0.46621487 -0.065914974 31 47
3.3856676 0.55666143 -0.26063624 43 21
3.4846835 0.46827844 -0.017614275 43 55
3.4038029 0.55902433 -0.21414831 46 25
3.3951674 0.35462415 -0.34249708 29 14
3.4896288 0.46831912 0.031020198 46 63
3.4212108 0.56187499 -0.16720064 48 30
3.3997095 0.3544938 -0.29471362 31 18
3.4380767 0.56402075 -0.11980196 42 38
3.4084537 0.35479462 -0.2484185 28 22
3.4264705 0.35665008 -0.20193675 25 26
3.355093 0.54924399 -0.42194495 47 9
3.4488811 0.35834977 -0.15522343 34 32
3.3677509 0.55131 -0.3542853 47 13
3.4557383 0.3584452 -0.10745338 28 40
3.3724043 0.55146527 -0.30710796 46 17
3.4817631 0.36111626 -0.059868407 28 48
3.4872956 0.3610689 -0.011507422 42 56
3.4970665 0.36206999 0.037049148 29 64
3.4419651 0.45767969 -0.16144693 49 31
3.5013132 0.36127001 0.085754201 28 70
3.4537764 0.45924094 -0.11378404 48 39
3.4598203 0.56323791 -0.072065189 25 46
3.3771646 0.44851425 -0.40492365 45 10
3.4851558 0.56735045 -0.023790017 43 54
3.4040158 0.65667301 -0.17318846 34 29
3.4158962 0.65896297 -0.12503633 54 37
3.343128 0.74550349 -0.27208531 47 20
3.3513825 0.74734557 -0.22507012 55 24
3.4708447 0.45410207 -0.065914974 37 47
3.3875902 0.5448398 -0.26063624 33 21
3.4862971 0.45611173 -0.017614275 49 55
3.4057336 0.54713947 -0.21414831 23 25
3.3963845 0.34277067 -0.34249708 30 14
3.4912424 0.45613518 0.031020198 42 63
3.4231513 0.54992932 -0.16720064 38 30
3.4009264 0.34262446 -0.29471362 36 18
3.4400246 0.5520162 -0.11980196 43 38
3.4096713 0.34289473 -0.2484185 32 22
3.4276943 0.34468731 -0.20193675 28 26
3.3667881 0.53909332 -0.42318961 33 9
3.4451406 0.34581521 -0.15499748 43 32
3.3696551 0.53955102 -0.3542853 32 13
3.4569685 0.3463802 -0.10745338 30 40
3.3743091 0.53969002 -0.30710796 35 17
3.4830027 0.3489604 -0.059868407 30 48
3.4885349 0.34889379 -0.011507422 47 56
3.4933336 0.34936854 0.036995914 30 64
3.443542 0.4456622 -0.16144693 42 31
3.5174761 0.35051706 0.086123303 28 70
3.450402 0.44654465 -0.11361913 58 39
3.4568276 0.55037373 -0.071961343 20 46
3.3787096 0.43672302 -0.40492365 43 10
3.4772387 0.55361384 -0.023721948 38 54
3.4062874 0.64478666 -0.17318846 33 29
3.427995 0.64889228 -0.12539928 42 37
3.3505781 0.73489779 -0.27248544 49 20
3.3685899 0.73885131 -0.22606161 57 24
3.4724085 0.44198379 -0.065914974 48 47
3.3894713 0.53301162 -0.26063624 26 21
3.4878678 0.44393951 -0.017614275 47 55
3.4076228 0.53524786 -0.21414831 20 25
3.3975604 0.33091298 -0.34249708 31 14
3.4878528 0.44331908 0.030975694 42 63
3.42505 0.53797692 -0.16720064 34 30
3.4021015 0.33075091 -0.29471362 46 18
3.4468677 0.54077721 -0.11997559 39 38
3.4108474 0.33099067 -0.2484185 40 22
3.4288766 0.33272034 -0.20193675 29 26
3.3637476 0.52657282 -0.42256728 18 9
3.451299 0.33426347 -0.15522343 51 32
3.3715177 0.52778542 -0.3542853 20 13
3.4581566 0.33431104 -0.10745338 34 40
3.3761725 0.52790815 -0.30710796 36 17
3.4841995 0.33680034 -0.059868407 31 48
3.494709 0.33718929 -0.011524003 51 56
3.4945319 0.33717239 0.036995914 31 64
3.4450765 0.43363929 -0.16144693 58 31
3.5037498 0.33681762 0.085754201 36 70
3.4568982 0.43511805 -0.11378404 47 39
3.4587278 0.53830379 -0.071961343 14 46
3.3802135 0.42492643 -0.40492365 43 10
3.484091 0.54223925 -0.023755983 40 54
3.4134274 0.63380343 -0.17344055 23 29
3.4302392 0.63692236 -0.12539928 56 37
3.3538201 0.72396076 -0.3203173 37 16
3.3531229 0.72319764 -0.27248544 54 20
3.3613949 0.7249831 -0.22540061 43 24
3.4739306 0.42986014 -0.065914974 26 47
3.3913114 0.52117687 -0.26063624 30 21
3.4893966 0.43176189 -0.017614275 41 55
3.4094703 0.52334982 -0.21414831 20 25
3.3986945 0.31905124 -0.34249708 49 14
3.4893789 0.4311415 0.030975694 36 63
3.4269071 0.52601802 -0.16720064 40 30
3.4032352 0.31887335 -0.29471362 52 18
3.4487345 0.52874207 -0.11997559 33 38
3.4119821 0.31908256 -0.2484185 50 22
3.4478042 0.63209218 -0.07812006 20 45
3.4300172 0.32074928 -0.20193675 30 26
3.3655653 0.51482797 -0.42256728 33 9
3.4524448 0.32221416 -0.15522343 56 32
3.3733397 0.51601344 -0.3542853 23 13
3.4593024 0.32223779 -0.10745338 45 40
3.3779945 0.5161199 -0.30710796 28 17
3.4803758 0.32417786 -0.059782017 34 48
3.4908855 0.32453093 -0.011507422 51 56
3.5056446 0.32588711 0.037102379 37 64
3.4465692 0.4216111 -0.16144693 43 31
3.5248151 0.32640776 0.086246334 39 70
3.4534352 0.42244563 -0.11361913 36 39
3.4605858 0.5262273 -0.071961343 17 46
3.3816764 0.41312468 -0.40492365 52 10
3.481019 0.52932483 -0.023721948 38 54
3.4810104 0.52932352 0.024937922 20 62
3.4156189 0.62188452 -0.17344055 29 29
3.4324417 0.62494475 -0.12539928 56 37
3.3417189 0.70914692 -0.31890827 60 16
3.3556271 0.71148866 -0.27248544 49 20
3.3687856 0.71428078 -0.22573112 42 24
3.3913324 0.71782804 -0.17917578 39 28
3.4754097 0.41773126 -0.065914974 23 47
3.3881791 0.50859809 -0.26025349 26 21
3.4859176 0.41898611 -0.017588967 41 55
3.4112761 0.5114454 -0.21414831 20 25
3.3997877 0.30718565 -0.34249708 46 14
3.4908628 0.41895866 0.030975694 34 63
3.4237828 0.51331455 -0.16695724 29 30
3.4043276 0.30699188 -0.29471362 54 18
3.4456165 0.51596278 -0.11980196 25 38
3.413075 0.3071706 -0.2484185 48 22
3.4401495 0.61828631 -0.077894934 49 45
3.4311156 0.30877435 -0.20193675 48 26
3.367342 0.50307679 -0.42256728 35 9
3.4485726 0.3097195 -0.15499748 52 32
3.3751204 0.50423509 -0.3542853 23 13
3.4604061 0.31016058 -0.10745338 49 40
3.37485 0.50359279 -0.30665565 23 17
3.4814861 0.3120271 -0.059782017 43 48
3.4969776 0.3127836 -0.011524003 47 56
3.3524873 0.6007331 -0.452613 34 8
3.5067608 0.31364813 0.037102379 49 64
3.4480197 0.40957773 -0.16144693 40 31
3.4548886 0.41038829 -0.11361913 40 39
3.4624016 0.51414436 -0.071961343 17 46
3.3880277 0.40189886 -0.40551996 35 10
3.4828453 0.51717055 -0.023721948 31 54
3.4877832 0.51790148 0.024973702 46 62
3.4128525 0.60908145 -0.17318846 41 29
3.4346018 0.6129595 -0.12539928 41 37
3.3636656 0.70154631 -0.32078698 57 16
3.3580902 0.69977099 -0.27248544 49 20
3.3712585 0.70251715 -0.22573112 41 24
3.3987057 0.70700341 -0.17943659 53 28
3.4768467 0.4055973 -0.065914974 23 47
3.3948672 0.49748862 -0.26063624 30 21
3.4873588 0.40681544 -0.017588967 39 55
3.4130409 0.49953467 -0.21414831 23 25
3.4008393 0.29531631 -0.34249708 50 14
3.4923038 0.40677074 0.030975694 29 63
3.425554 0.50136012 -0.16695724 28 30
3.4103415 0.2955313 -0.29514766 50 18
3.4473968 0.50393218 -0.11980196 30 38
3.4190953 0.29567906 -0.24878383 52 22
3.4521329 0.60800678 -0.07812006 50 45
3.4321728 0.29679564 -0.20193675 41 26
3.3690772 0.49131951 -0.42256728 35 9
3.4446564 0.29725581 -0.15477155 51 32
3.3768597 0.49245068 -0.3542853 23 13
3.4515085 0.29723284 -0.10714103 49 40
3.3765872 0.49180925 -0.30665565 25 17
3.4875352 0.30029607 -0.059868407 35 48
3.4930661 0.30015224 -0.011507422 47 56
3.3545637 0.58902711 -0.452613 52 8
3.5028527 0.30098265 0.037049148 44 64
3.4494286 0.39753941 -0.16144693 36 31
3.4513354 0.39775768 -0.11345423 30 39
3.4641752 0.50205523 -0.071961343 17 46
3.3844779 0.38950625 -0.40492365 28 10
3.4796813 0.50429517 -0.023687914 32 54
3.484621 0.50500876 0.024937922 39 62
3.4198771 0.59802407 -0.17344055 54 29
3.4367208 0.60096681 -0.12539928 58 37
3.3417118 0.68480015 -0.31843859 42 16
3.3653948 0.68904525 -0.27288556 44 20
3.3785775 0.69174647 -0.22606161 41 24
3.396261 0.69413477 -0.17917578 47 28
3.4782412 0.39345834 -0.065914974 23 47
3.3965831 0.48563522 -0.26063624 34 21
3.4887574 0.39463979 -0.017588967 42 55
3.4098232 0.48691478 -0.21383524 25 25
3.4018493 0.28344336 -0.34249708 42 14
3.4986711 0.39513513 0.031020198 23 63
3.4272828 0.48939967 -0.16695724 31 30
3.4063878 0.28321791 -0.29471362 54 18
3.4491346 0.49189541 -0.11980196 30 38
3.4151363 0.28333554 -0.2484185 51 22
3.4443822 0.59425467 -0.077894934 52 45
3.4282129 0.28440604 -0.20164108 39 26
3.3756838 0.48025271 -0.42318961 39 9
3.4406946 0.28482324 -0.15454561 51 32
3.3785584 0.48066026 -0.3542853 28 13
3.4525251 0.28518301 -0.10714103 49 40
3.383214 0.48071799 -0.30710796 30 17
3.4785969 0.28730819 -0.059695628 26 48
3.4940927 0.28795734 -0.011507422 47 56
3.3565996 0.5773139 -0.452613 42 8
3.5138488 0.28956422 0.03715561 43 64
3.4458313 0.3849456 -0.16121228 35 31
3.4527028 0.38570786 -0.11345423 23 39
3.4659066 0.48995996 -0.071961343 23 46
3.3858168 0.37768984 -0.40492365 24 10
3.4814203 0.49214578 -0.023687914 49 54
3.4863625 0.49284214 0.024937922 43 62
3.4219437 0.58608282 -0.17344055 44 29
3.4387975 0.58896673 -0.12539928 56 37
3.3782659 0.68063128 -0.3698431 41 12
3.3587215 0.67608052 -0.31984761 39 16
3.3677795 0.67729354 -0.27288556 47 20
3.3809714 0.67994875 -0.22606161 38 24
3.4035587 0.68325889 -0.17943659 41 28
3.4795935 0.38131464 -0.065914974 23 47
3.3982573 0.47377601 -0.26063624 36 21
3.4901137 0.38245937 -0.017588967 31 55
3.4115021 0.47500929 -0.21383524 37 25
3.3978586 0.27117667 -0.34199265 23 14
3.4950583 0.38238016 0.030975694 23 63
3.4339173 0.47811961 -0.16720064 40 30
3.4073558 0.27132568 -0.29471362 38 18
3.4508307 0.47985268 -0.11980196 38 38
3.4161046 0.27141273 -0.2484185 48 22
3.4464357 0.58222789 -0.077894934 38 45
3.4242091 0.27204773 -0.20134543 20 26
3.3773396 0.46846646 -0.42318961 58 9
3.4719281 0.58590728 -0.029804239 14 53
3.4366884 0.27242196 -0.15431966 40 32
3.3851411 0.46954483 -0.35480705 29 13
3.4534996 0.27312973 -0.10714103 32 40
3.3848712 0.46890545 -0.30710796 35 17
3.4795785 0.27516386 -0.059695628 23 48
3.4900916 0.27537099 -0.01149084 45 56
3.3585942 0.56559366 -0.452613 61 8
3.447154 0.37291503 -0.16121228 31 31
3.4540281 0.37365332 -0.11345423 28 39
3.4675956 0.47785866 -0.071961343 25 46
3.3920505 0.3663981 -0.40551996 21 10
3.4831169 0.47999033 -0.023687914 42 54
3.4880614 0.48066944 0.024937922 40 62
3.4239686 0.57413441 -0.17344055 41 29
3.4825118 0.47928789 0.073486865 31 69
3.4457607 0.57778507 -0.12558076 58 37
3.346488 0.66207629 -0.3660692 40 12
3.3610611 0.66435224 -0.31984761 29 16
3.3701231 0.66553372 -0.27288556 41 20
3.3833244 0.66814286 -0.22606161 23 24
3.4059229 0.67137408 -0.17943659 41 28
3.4179738 0.6731317 -0.13183671 39 36
3.4759319 0.36864287 -0.06581986 25 47
3.3998907 0.46191102 -0.26063624 43 21
3.4914277 0.37027425 -0.017588967 32 55
3.4131396 0.46309805 -0.21383524 44 25
3.3987844 0.25931427 -0.34199265 25 14
3.4963717 0.37017775 0.030975694 28 63
3.4306161 0.46546096 -0.16695724 53 30
3.4033146 0.25905749 -0.29427958 31 18
3.4524846 0.46780413 -0.11980196 53 38
3.417031 0.25948668 -0.2484185 45 22
3.4533787 0.57100874 -0.078007489 30 45
3.430115 0.26046586 -0.20164108 23 26
3.3740377 0.45601231 -0.42256728 45 9
3.4788849 0.57459843 -0.029847 48 53
3.4475803 0.26116782 -0.15477155 38 32
3.3818316 0.45706192 -0.3542853 31 13
3.4494481 0.26070186 -0.10698485 35 40
3.3864875 0.45708716 -0.30710796 47 17
3.4805176 0.26301619 -0.059695628 17 48
3.4960179 0.26355717 -0.011507422 34 56
3.3605483 0.55386657 -0.452613 58 8
3.4484348 0.36087996 -0.16121228 32 31
3.4602821 0.36211053 -0.11361913 29 39
3.4642882 0.46508875 -0.071857505 28 46
3.3933089 0.3545554 -0.40551996 22 10
3.4847713 0.46782905 -0.023687914 40 54
3.4897182 0.4684909 0.024937922 50 62
3.4259517 0.56217903 -0.17344055 42 29
3.4792085 0.46646675 0.073381275 46 69
3.4428256 0.56494522 -0.12539928 40 37
3.382935 0.65703011 -0.3698431 20 12
3.3584726 0.65166682 -0.31937793 29 16
3.3724256 0.65376574 -0.27288556 32 20
3.3856359 0.6563288 -0.22606161 17 24
3.4033437 0.65853184 -0.17917578 29 28
3.4252079 0.66214573 -0.13202779 32 36
3.4771974 0.35650733 -0.06581986 28 47
3.4014823 0.45004034 -0.26063624 48 21
3.4926989 0.35808465 -0.017588967 42 55
3.4196827 0.4518325 -0.21414831 47 25
3.3996692 0.24744871 -0.34199265 28 14
3.4976428 0.35797092 0.030975694 30 63
3.43222 0.45348307 -0.16695724 50 30
3.3992298 0.2468209 -0.29384553 25 18
3.4540966 0.45574984 -0.11980196 55 38
3.4129422 0.24720263 -0.24805319 31 22
3.4504161 0.55815327 -0.077894934 25 45
3.4310033 0.24849094 -0.20164108 25 26
3.3756089 0.44423196 -0.42256728 54 9
3.4759336 0.56165457 -0.029804239 30 53
3.4484708 0.24913192 -0.15477155 34 32
3.3834064 0.44525436 -0.3542853 34 13
3.4503374 0.24865945 -0.10698485 20 40
3.3880625 0.44526333 -0.30710796 54 17
3.4814148 0.25086531 -0.059695628 20 48
3.4869416 0.25064591 -0.011474259 43 56
3.3624611 0.54213268 -0.452613 41 8
3.4496734 0.34884048 -0.16121228 41 31
3.4565525 0.34953076 -0.11345423 31 39
3.4658904 0.4529933 -0.071857505 30 46
3.3945255 0.34270838 -0.40551996 27 10
3.4863832 0.4556621 -0.023687914 49 54
3.4913323 0.45630667 0.024937922 39 62
3.4229629 0.5494262 -0.17318846 39 29
3.4857731 0.45496389 0.073486865 48 69
3.4447765 0.5529241 -0.12539928 53 37
3.3559108 0.63962877 -0.36660832 20 12
3.3607268 0.63993967 -0.31937793 17 16
3.3746874 0.64198983 -0.27288556 33 20
3.3879066 0.64450669 -0.22606161 14 24
3.4105272 0.64758015 -0.17943659 17 28
3.4274983 0.65018553 -0.13202779 46 36
3.4784207 0.3443675 -0.06581986 30 47
3.4030323 0.4381642 -0.26063624 47 21
3.4939275 0.34589067 -0.017588967 55 55
3.4212391 0.43989283 -0.21414831 31 25
3.400512 0.23558015 -0.34199265 29 14
3.4938951 0.34527177 0.030931188 32 63
3.4337821 0.44149962 -0.16695724 54 30
3.4050403 0.23529176 -0.29427958 29 18
3.4556665 0.44369 -0.11980196 44 38
3.4137843 0.23528773 -0.24805319 25 22
3.4523435 0.54610562 -0.077894934 17 45
3.4268701 0.23617524 -0.20134543 25 26
3.3771391 0.43244615 -0.42256728 50 9
3.4778731 0.54951781 -0.029804239 40 53
3.4443362 0.23675589 -0.15454561 36 32
3.3849401 0.43344134 -0.3542853 49 13
3.4511843 0.23661402 -0.10698485 32 40
3.389596 0.43343413 -0.30710796 54 17
3.482269 0.23871137 -0.059695628 20 48
3.4927838 0.23880838 -0.01149084 38 56
3.3643329 0.53039223 -0.452613 29 8
3.445899 0.33631545 -0.16097762 58 31
3.4577518 0.33746302 -0.11345423 40 39
3.4674506 0.44089231 -0.071857505 41 46
3.3907602 0.33037966 -0.40492365 29 10
3.4879522 0.44348955 -0.023687914 49 54
3.4879439 0.44348848 0.024902144 37 62
3.42486 0.53747445 -0.17318846 41 29
3.4823804 0.44216612 0.073381275 46 69
3.4466858 0.54089618 -0.12539928 38 37
3.3581233 0.62791055 -0.36660832 20 12
3.3678339 0.62911952 -0.31984761 23 16
3.3769078 0.63020605 -0.27288556 23 20
3.3901355 0.63267678 -0.22606161 14 24
3.4127667 0.63567126 -0.17943659 26 28
3.4297471 0.63821733 -0.13202779 58 36
3.4845781 0.33269477 -0.065914974 30 47
3.4045413 0.42628276 -0.26063624 51 21
3.4951136 0.33369249 -0.017588967 47 55
3.4227538 0.42794779 -0.21414831 44 25
3.4013138 0.2237087 -0.34199265 29 14
3.5000567 0.33354419 0.030975694 45 63
3.4353023 0.42951077 -0.16695724 47 30
3.4058409 0.22340454 -0.29427958 29 18
3.4571941 0.43162477 -0.11980196 42 38
3.4145851 0.22336997 -0.24805319 29 22
3.4542289 0.53405136 -0.077894934 14 45
3.4326544 0.22453216 -0.20164108 25 26
3.3786278 0.42065513 -0.42256728 40 9
3.4797699 0.53737444 -0.029804239 38 53
3.4451413 0.22473145 -0.15454561 32 32
3.3864324 0.42162308 -0.3542853 49 13
3.4848809 0.5375402 0.018882625 29 61
3.4519889 0.22456568 -0.10698485 28 40
3.3910882 0.42159957 -0.30710796 49 17
3.4830811 0.22655451 -0.059695628 25 48
3.4886062 0.22629653 -0.011474259 37 56
3.366164 0.51864529 -0.452613 34 8
3.4520247 0.3247489 -0.16121228 51 31
3.4589086 0.32539114 -0.11345423 53 39
3.4689684 0.42878595 -0.071857505 32 46
3.3968356 0.31900197 -0.40551996 33 10
3.4894793 0.43131164 -0.023687914 44 54
3.4894707 0.43131059 0.024902144 38 62
3.4267151 0.52551621 -0.17318846 31 29
3.4839027 0.43000764 0.073381275 43 69
3.4485526 0.52886176 -0.12539928 31 37
3.3602948 0.61618471 -0.36660832 25 12
3.3700092 0.6173597 -0.31984761 28 16
3.3790872 0.61841458 -0.27288556 24 20
3.3923235 0.62083912 -0.22606161 20 24
3.4149647 0.62375456 -0.17943659 25 28
3.4319541 0.62624145 -0.13202779 46 36
3.438463 0.62681001 -0.083932117 36 44
3.4807401 0.3200753 -0.06581986 34 47
3.4010592 0.41379625 -0.26025349 38 21
3.4912779 0.32103619 -0.01756366 43 55
3.4192727 0.41539803 -0.21383524 25 25
3.4070392 0.21213825 -0.34249708 29 14
3.5011995 0.32132471 0.030975694 45 63
3.4367805 0.41751674 -0.16695724 47 30
3.411572 0.2118178 -0.29471362 33 18
3.4537191 0.41895488 -0.11962834 43 38
3.420321 0.21175218 -0.2484185 33 22
3.4560719 0.5219906 -0.077894934 17 45
3.4334171 0.21254858 -0.20164108 28 26
3.3800755 0.40885895 -0.42256728 37 9
3.4816244 0.52522457 -0.029804239 30 53
3.4508908 0.21300663 -0.15477155 40 32
3.3928201 0.41039443 -0.35480705 36 13
3.4817917 0.52462822 0.018855572 49 61
3.462729 0.21311784 -0.1072972 41 40
3.3925393 0.40975988 -0.30710796 38 17
3.4788606 0.21409319 -0.059609234 28 48
3.3679538 0.50689197 -0.452613 34 8
3.4481628 0.31225052 -0.16097762 44 31
3.4600234 0.3133153 -0.11345423 58 39
3.4704442 0.41667441 -0.071857505 20 46
3.3929842 0.30669984 -0.40492365 42 10
3.4859989 0.4185347 -0.02365388 44 54
3.4909549 0.41912743 0.024902144 36 62
3.4285285 0.51355159 -0.17318846 32 29
3.4903462 0.41843671 0.073486865 20 69
3.4503777 0.51682085 -0.12539928 25 37
3.3624251 0.6044513 -0.36660832 40 12
3.3721437 0.60559243 -0.31984761 29 16
3.3812251 0.60661566 -0.27288556 32 20
3.3944697 0.60899401 -0.22606161 28 24
3.4171214 0.61183035 -0.17943659 30 28
3.4341192 0.61425787 -0.13202779 59 36
3.4357095 0.61392379 -0.083810821 49 44
3.4818361 0.30792332 -0.06581986 43 47
3.4024827 0.40192187 -0.26025349 29 21
3.4973581 0.30928406 -0.017588967 49 55
3.4256577 0.40404224 -0.21414831 23 25
3.4077587 0.20024416 -0.34249708 31 14
3.497319 0.30866551 0.030931188 54 63
3.4382169 0.40551758 -0.16695724 44 30
3.4122906 0.19990791 -0.29471362 41 18
3.4551606 0.40689659 -0.11962834 40 38
3.4210393 0.19981174 -0.2484185 40 22
3.4578729 0.50992346 -0.077894934 20 45
3.4341383 0.20056243 -0.20164108 30 26
3.3814824 0.3970578 -0.42256728 27 9
3.4834366 0.51306814 -0.029804239 37 53
3.4516134 0.20095949 -0.15477155 52 32
3.394232 0.39854878 -0.35480705 25 13
3.4885485 0.51319832 0.018882625 37 61
3.4634514 0.20102938 -0.1072972 36 40
3.393949 0.39791521 -0.30710796 35 17
3.4845779 0.20223272 -0.059695628 28 48
3.3697028 0.49513251 -0.452613 33 8
3.4492314 0.30021229 -0.16097762 48 31
3.4610958 0.30123568 -0.11345423 47 39
3.4669116 0.40398142 -0.071753666 20 46
3.3989799 0.29528001 -0.40551996 43 10
3.4874384 0.40636376 -0.02365388 40 54
3.4923966 0.40693918 0.024902144 17 62
3.4303007 0.50158066 -0.17318846 25 29
3.4868197 0.40567514 0.073381275 28 69
3.4472167 0.50405145 -0.1252178 29 37
3.36941 0.59357381 -0.36714745 32 12
3.3742371 0.59381777 -0.31984761 32 16
3.383322 0.59480929 -0.27288556 37 20
3.3916614 0.59627676 -0.22573112 29 24
3.4143183 0.59903497 -0.17917578 36 28
3.4411635 0.6031301 -0.13221887 46 36
3.4427552 0.60279 -0.083932117 54 44
3.4828897 0.29576761 -0.06581986 28 47
3.4038649 0.39004251 -0.26025349 31 21
3.493434 0.29665488 -0.01756366 41 55
3.4220893 0.39151707 -0.21383524 20 25
3.4034698 0.18807863 -0.34199265 32 14
3.5033576 0.29687408 0.030975694 51 63
3.4396117 0.39351347 -0.16695724 41 30
3.4129677 0.18799557 -0.29471362 54 18
3.4515948 0.39426851 -0.11945471 36 38
3.421716 0.18786886 -0.2484185 47 22
3.4596319 0.49785015 -0.077894934 23 45
3.4348176 0.18857384 -0.20164108 48 26
3.3877771 0.38581082 -0.42318961 29 9
3.4802575 0.50019509 -0.029761478 35 53
3.4522936 0.18890986 -0.15477155 54 32
3.3956027 0.38669828 -0.35480705 20 13
3.4853697 0.50030816 0.018855572 42 61
3.459142 0.18867166 -0.10714103 49 40
3.4052129 0.38718617 -0.30801255 28 17
3.4802704 0.18980116 -0.059609234 29 48
3.3763161 0.48406959 -0.45327863 66 8
3.4452813 0.28775856 -0.16074295 56 31
3.4571459 0.28874028 -0.11328933 42 39
3.4732685 0.39243618 -0.071857505 20 46
3.3999901 0.28341356 -0.40551996 43 10
3.4888358 0.39418784 -0.02365388 38 54
3.4937961 0.39474598 0.024902144 23 62
3.4320304 0.48960358 -0.17318846 29 29
3.4882145 0.3935014 0.073381275 27 69
3.453902 0.49272022 -0.12539928 38 37
3.3718474 0.78810841 -0.23901591 52 23
3.3665628 0.5809626 -0.36660832 41 12
3.3762894 0.5820359 -0.31984761 37 16
3.3853776 0.58299565 -0.27288556 48 20
3.3986387 0.58528143 -0.22606161 31 24
3.4213092 0.58795959 -0.17943659 50 28
3.4383237 0.59026843 -0.13202779 55 36
3.4399118 0.58992326 -0.083810821 50 44
3.4223235 0.70086074 -0.13825308 41 35
3.4789181 0.28320643 -0.065724745 23 47
3.4052057 0.37815842 -0.26025349 32 21
3.4944482 0.2844587 -0.01756366 41 55
3.428395 0.38011694 -0.21414831 23 25
3.4090738 0.17644884 -0.34249708 45 14
3.4993887 0.2842423 0.030931188 43 63
3.4360003 0.38095659 -0.16671388 31 30
3.4136031 0.17608093 -0.29471362 54 18
3.4529498 0.38221782 -0.11945471 23 38
3.4223511 0.17592371 -0.2484185 53 22
3.4613485 0.48577076 -0.077894934 28 45
3.4404402 0.17683372 -0.20193675 52 26
3.3891032 0.37398291 -0.42318961 27 9
3.4819822 0.48804364 -0.029761478 49 53
3.4529319 0.17685798 -0.15477155 57 32
3.3969316 0.37484303 -0.35480705 25 13
3.4870946 0.48813891 0.018855572 54 61
3.4597795 0.17659585 -0.10714103 47 40
3.4015939 0.37475443 -0.30756024 25 17
3.3730769 0.4715957 -0.452613 36 8
3.4412858 0.27533603 -0.16050829 45 31
3.4531512 0.27627611 -0.11312442 34 39
3.4746172 0.38030979 -0.071857505 20 46
3.4009583 0.27154362 -0.40551996 42 10
3.4901905 0.38200709 -0.02365388 29 54
3.4951527 0.38254791 0.024902144 23 62
3.4337184 0.47762057 -0.17318846 39 29
3.4895668 0.38132286 0.073381275 20 69
3.4556005 0.48066089 -0.12539928 51 37
3.3551376 0.77184552 -0.23762426 49 23
3.3685703 0.56920755 -0.36660832 41 12
3.3783002 0.57024688 -0.31984761 48 16
3.387392 0.57117492 -0.27288556 51 20
3.4006608 0.57341439 -0.22606161 47 24
3.4233408 0.57601345 -0.17943659 49 28
3.4452901 0.57909179 -0.13221887 45 36
3.4419501 0.57791215 -0.083810821 43 44
3.3475311 0.76639861 -0.28474882 71 19
3.4772923 0.58385175 -0.035328839 34 52
3.4247491 0.68891031 -0.13825308 42 35
3.4798853 0.271061 -0.065724745 20 47
3.4065049 0.36626974 -0.26025349 29 21
3.4954197 0.27225903 -0.01756366 40 55
3.4247391 0.36761704 -0.21383524 25 25
3.4096689 0.16454788 -0.34249708 53 14
3.4373093 0.36896041 -0.16671388 28 30
3.4191723 0.16439793 -0.29514766 56 18
3.4592316 0.37069258 -0.11962834 30 38
3.4279253 0.16420957 -0.24878383 56 22
3.4630229 0.47368544 -0.077894934 30 45
3.4360502 0.16458988 -0.20164108 50 26
3.3903878 0.36215046 -0.42318961 35 9
3.4836648 0.47588632 -0.029761478 47 53
3.4485388 0.16457123 -0.15454561 52 32
3.3982193 0.36298326 -0.35480705 23 13
3.4887774 0.47596368 0.018855572 55 61
3.4503903 0.16405404 -0.10682866 56 40
3.4028814 0.36287838 -0.30756024 28 17
3.3747027 0.45981857 -0.452613 37 8
3.4422259 0.26332206 -0.16050829 37 31
3.4540944 0.26422071 -0.11312442 35 39
3.4709518 0.36765453 -0.071753666 20 46
3.4018855 0.25967041 -0.40551996 32 10
3.4865305 0.36929742 -0.023619846 34 54
3.4914939 0.36982086 0.024866365 28 62
3.4353647 0.46563175 -0.17318846 52 29
3.4908767 0.36913967 0.073381275 23 69
3.4572573 0.46859565 -0.12539928 52 37
3.3772671 0.76454943 -0.23901591 61 23
3.3705368 0.55744565 -0.36660832 49 12
3.3753591 0.5576387 -0.31937793 52 16
3.3844478 0.55853492 -0.27248544 49 20
3.4026418 0.56154037 -0.22606161 45 24
3.4253309 0.56406021 -0.17943659 49 28
3.4423609 0.56625026 -0.13202779 45 36
3.4488788 0.56670511 -0.083932117 40 44
3.340466 0.75251126 -0.28391379 51 19
3.4793093 0.57171017 -0.035328839 50 52
3.4271328 0.67695153 -0.13825308 61 35
3.4808104 0.25891227 -0.065724745 20 47
3.4077628 0.35437655 -0.26025349 33 21
3.4963491 0.26005608 -0.01756366 35 55
3.4260015 0.35566023 -0.21383524 25 25
3.4052527 0.15242793 -0.34199265 41 14
3.4385765 0.3569597 -0.16671388 31 30
3.4097724 0.15202898 -0.29427958 48 18
3.4605048 0.35861537 -0.11962834 31 38
3.4234958 0.15202709 -0.2484185 52 22
3.4597001 0.46093494 -0.077782363 28 45
3.4366038 0.1525948 -0.20164108 34 26
3.3916314 0.3503136 -0.42318961 36 9
3.4853046 0.46372318 -0.029761478 42 53
3.4540827 0.15274784 -0.15477155 46 32
3.3945193 0.35061052 -0.3542853 28 13
3.4904177 0.4637827 0.018855572 55 61
3.4459493 0.1517944 -0.10667248 51 40
3.399174 0.3504895 -0.30710796 30 17
3.3664625 0.44673368 -0.45128179 50 8
3.4431241 0.25130484 -0.16050829 35 31
3.4549959 0.25216204 -0.11312442 25 39
3.472214 0.3555364 -0.071753666 23 46
3.4027712 0.24779403 -0.40551996 25 10
3.4877982 0.35712492 -0.023619846 44 54
3.4927638 0.35763103 0.024866365 29 62
3.4369693 0.45363724 -0.17318846 43 29
3.4921439 0.35695198 0.073381275 25 69
3.4588721 0.4565247 -0.12539928 56 37
3.3466849 0.54150188 -0.49229512 47 7
3.3604443 0.74840361 -0.23762426 70 23
3.372462 0.54567683 -0.36660832 52 12
3.377285 0.54585314 -0.31937793 49 16
3.3863766 0.54671758 -0.27248544 51 20
3.4045811 0.54965955 -0.22606161 42 24
3.4272788 0.55210012 -0.17943659 43 28
3.4443164 0.55423075 -0.13202779 45 36
3.4459009 0.55386889 -0.083810821 20 44
3.3576639 0.74409181 -0.28516635 72 19
3.4763474 0.55876744 -0.035278223 36 52
3.4245708 0.66403115 -0.1380533 42 35
3.481693 0.24676041 -0.065724745 25 47
3.4089789 0.34247911 -0.26025349 35 21
3.4822724 0.24680102 -0.017487736 38 55
3.4272223 0.3436991 -0.21383524 28 25
3.4057641 0.14054044 -0.34199265 28 14
3.4398015 0.34495467 -0.16671388 37 30
3.4102824 0.14012572 -0.29427958 44 18
3.4617355 0.34653375 -0.11962834 37 38
3.419023 0.13987756 -0.24805319 41 22
3.4612882 0.44885552 -0.077782363 29 45
3.4321284 0.14039934 -0.20134543 32 26
3.3878968 0.33798233 -0.42256728 32 9
3.486902 0.45155436 -0.029761478 55 53
3.4496036 0.14049207 -0.15454561 45 32
3.3957226 0.3387593 -0.3542853 30 13
3.4920151 0.45159605 0.018855572 42 61
3.4464579 0.13976489 -0.10667248 43 40
3.4003766 0.33862203 -0.30710796 35 17
3.3680012 0.4349798 -0.45128179 54 8
3.4439805 0.23928457 -0.16050829 31 31
3.4508693 0.23975784 -0.11295952 25 39
3.473434 0.34341395 -0.071753666 25 46
3.4036155 0.23591465 -0.40551996 24 10
3.4890237 0.34494802 -0.023619846 46 54
3.4939907 0.34543681 0.024866365 33 62
3.4385319 0.44163722 -0.17318846 41 29
3.4784441 0.34329396 0.073064521 23 69
3.4554884 0.44381243 -0.1252178 56 37
3.3436687 0.5290426 -0.49156904 31 7
3.3581648 0.73559785 -0.23727635 45 23
3.3743463 0.53390145 -0.36660832 32 12
3.3953366 0.74314958 -0.19170523 43 27
3.3840866 0.5348388 -0.31984761 37 16
3.3931873 0.53567159 -0.27288556 34 20
3.4015512 0.53699332 -0.22573112 33 24
3.424253 0.5393557 -0.17917578 35 28
3.4462299 0.54220438 -0.13202779 43 36
3.3364549 0.72777343 -0.33070469 43 15
3.4527509 0.5426138 -0.083932117 25 44
3.345638 0.72917229 -0.28391379 61 19
3.4782765 0.54662931 -0.035278223 37 52
3.4317753 0.6530093 -0.13825308 46 35
3.4382503 0.65424442 -0.090099052 30 43
3.482533 0.23460555 -0.065724745 23 47
3.4101536 0.33057746 -0.26025349 41 21
3.4930904 0.23530862 -0.017538352 28 55
3.4284012 0.33173376 -0.21383524 42 25
3.4062338 0.12865125 -0.34199265 28 14
3.4409847 0.33294541 -0.16671388 48 30
3.4107509 0.12822077 -0.29427958 35 18
3.462924 0.33444792 -0.11962834 54 38
3.4194903 0.12794209 -0.24805319 50 22
3.4677935 0.43739545 -0.077894934 38 45
3.4325976 0.12841813 -0.20134543 25 26
3.3939943 0.32662719 -0.42318961 40 9
3.4884572 0.43938002 -0.029761478 55 53
3.450073 0.12844984 -0.15454561 43 32
3.4018342 0.32737795 -0.35480705 31 13
3.4886096 0.4387807 0.018828521 42 61
3.4369361 0.12737437 -0.10636012 43 40
3.4015379 0.32675043 -0.30710796 42 17
3.3744159 0.42383742 -0.45194742 41 8
3.4447949 0.22726136 -0.16050829 31 31
3.4566722 0.22803569 -0.11312442 30 39
3.4795885 0.33175951 -0.071857505 28 46
3.4093723 0.22435446 -0.40611634 25 10
3.4951842 0.33323923 -0.02365388 40 54
3.4951756 0.33323842 0.024866365 43 62
3.4400525 0.42963183 -0.17318846 53 29
3.4945507 0.33256376 0.073381275 28 69
3.4570165 0.43174779 -0.1252178 54 37
3.3503838 0.51812464 -0.49229512 30 7
3.3607121 0.72387117 -0.23727635 49 23
3.3761895 0.52211958 -0.36660832 25 12
3.3979104 0.73129314 -0.19170523 55 27
3.3810134 0.5222621 -0.31937793 20 16
3.3901112 0.52306306 -0.27248544 35 20
3.4034052 0.52511632 -0.22573112 13 24
