# .PCD v0.7 - Point Cloud Data file format
VERSION 0.7
FIELDS x y z intensity ring
SIZE 4 4 4 4 2
TYPE F F F F U
COUNT 1 1 1 1 1
WIDTH 1195
HEIGHT 1
VIEWPOINT 0 0 0 1 0 0 0
POINTS 1195
DATA ascii
3.559926 -0.062675096 -0.38224307 54 12
3.61745 0.14830276 -0.19977409 18 27
3.569885 -0.063472182 -0.33346814 35 16
3.6448705 0.14881 -0.15075061 36 34
3.5891342 -0.064438164 -0.28528944 51 20
3.6466217 0.14888278 -0.10030653 71 42
3.602747 -0.064680524 -0.2363071 50 24
3.6256449 -0.066354215 -0.18752168 50 28
3.6428878 -0.06730324 -0.13795088 45 36
3.5662763 0.14367296 -0.34580314 26 15
3.6494477 -0.068060637 -0.087692082 44 44
3.5807381 0.14364047 -0.29727444 25 19
3.6753204 -0.068539344 -0.036847271 48 52
3.6856682 -0.057792015 0.013377918 42 60
3.6901245 -0.057861242 0.064426363 39 68
3.6578848 0.04946902 -0.14484608 49 35
3.664552 0.049562115 -0.094389483 25 43
3.574791 -0.27910104 -0.27250072 33 21
3.5881395 -0.28077939 -0.22354078 28 25
3.5295711 -0.48598522 -0.35762948 51 14
3.5958836 -0.28138885 -0.17401521 28 30
3.5390787 -0.48793405 -0.30816889 45 18
3.6178358 -0.28375188 -0.12483712 41 38
3.5478077 -0.48977792 -0.25974345 44 22
3.6408432 -0.17880397 -0.081271872 25 45
3.547519 -0.27945143 -0.44185975 30 9
3.6615686 -0.18046547 -0.031044299 44 53
3.5606737 -0.28049368 -0.37098208 29 13
3.6716042 -0.18160394 0.019694198 54 61
3.5753722 -0.28228617 -0.32248595 34 17
3.5353322 -0.17546231 -0.47058439 42 8
3.5808623 -0.39073807 -0.16754813 29 31
3.5878096 -0.39150137 -0.11790664 37 39
3.6338236 -0.28948039 -0.074972712 20 46
3.5347013 -0.38629064 -0.42281422 33 10
3.6395004 -0.28993514 -0.024606843 38 54
3.6120138 -0.18180774 -0.18075128 50 29
3.6291792 -0.1826743 -0.13066205 41 37
3.5279408 -0.074436218 -0.51262587 49 7
3.6807237 0.030513285 -0.043895353 35 51
3.599833 0.13561113 -0.24875745 32 23
3.5646553 -0.075205281 -0.38278222 45 12
3.7059855 0.030086879 0.0070458893 23 59
3.6179457 0.1356746 -0.19977409 21 27
3.5746183 -0.076038137 -0.33393782 36 16
3.6453676 0.13608611 -0.15075061 41 34
3.5888872 -0.076966181 -0.28528944 48 20
3.6521134 0.1363429 -0.10044527 64 42
3.6024992 -0.077256061 -0.2363071 51 24
3.6253912 -0.079009667 -0.18752168 38 28
3.6426303 -0.080018878 -0.13795088 43 36
3.5617831 0.13103677 -0.34531608 25 15
3.6491878 -0.08079917 -0.087692082 37 44
3.5812175 0.13114049 -0.29727444 35 19
3.6750584 -0.081368193 -0.036847271 37 52
3.6904433 -0.070752166 0.013396244 41 60
3.6898999 -0.070741825 0.064426363 20 68
3.6530395 0.036648002 -0.14464629 42 35
3.6986251 -0.07155361 0.11575978 52 72
3.6597047 0.036717802 -0.094259478 20 43
3.5787635 -0.29198533 -0.27288345 37 21
3.5921111 -0.29371148 -0.22385386 37 25
3.5278533 -0.49830273 -0.35762948 40 14
3.5998569 -0.2943483 -0.17425859 31 30
3.5373538 -0.50028473 -0.30816889 32 18
3.6168234 -0.29637873 -0.12483712 54 38
3.5460765 -0.50215912 -0.25974345 32 22
3.6451886 -0.19177514 -0.081384443 37 45
3.5465217 -0.29183289 -0.44185975 31 9
3.6659091 -0.19350992 -0.031087061 40 53
3.5596728 -0.29292104 -0.37098208 33 13
3.6709476 -0.19441912 0.019694198 41 61
3.5694027 -0.29435337 -0.32203367 39 17
3.5396464 -0.18806551 -0.47125003 53 8
3.584439 -0.40379798 -0.16778278 29 31
3.632791 -0.30216303 -0.074972712 25 46
3.5333314 -0.39862669 -0.42281422 31 10
3.6113572 -0.19441491 -0.18075128 51 29
3.6235304 -0.19507205 -0.13048059 58 37
3.5276594 -0.086750567 -0.51262587 45 7
3.6808076 0.017664973 -0.043895353 28 51
3.6002843 0.12304455 -0.24875745 27 23
3.5643711 -0.087647781 -0.38278222 42 12
3.7010682 0.017125085 0.0070362901 36 59
3.6183972 0.12304477 -0.19977409 25 27
3.574331 -0.088515423 -0.33393782 44 16
3.6458206 0.12336058 -0.15075061 37 34
3.5935793 -0.089616776 -0.28568956 47 20
3.6475723 0.12342113 -0.10030653 51 42
3.6071951 -0.089954302 -0.23663759 45 24
3.6201017 -0.091538675 -0.18726087 34 28
3.6373343 -0.092607118 -0.13775982 43 36
3.5622189 0.11860303 -0.34531608 29 15
3.6538804 -0.09366408 -0.08781337 20 44
3.5816538 0.1186389 -0.29727444 28 19
3.669754 -0.094068654 -0.036796656 34 52
3.6901739 -0.08363378 0.013396244 41 60
3.6846325 -0.083508998 0.064338222 37 68
3.6581411 0.02393117 -0.14484608 39 35
3.7033491 -0.084577158 0.1159177 39 72
3.6598103 0.023942824 -0.094259478 20 43
3.5826898 -0.30490074 -0.27326617 42 21
3.591064 -0.30624852 -0.22385386 32 25
3.5211701 -0.50989616 -0.35712507 25 14
3.5988076 -0.30691236 -0.17425859 41 30
3.5355859 -0.51262933 -0.30816889 25 18
3.6157668 -0.30900201 -0.12483712 54 38
3.5443017 -0.51453412 -0.25974345 49 22
3.6444969 -0.20449805 -0.081384443 38 45
3.5405385 -0.30378443 -0.44123739 54 9
3.6552279 -0.20574175 -0.03100154 44 53
3.5536742 -0.30491748 -0.37046033 39 13
3.6702466 -0.20723194 0.019694198 40 61
3.5683537 -0.30681106 -0.32203367 31 17
3.5340209 -0.20013911 -0.47058439 50 8
3.568126 -0.41456726 -0.16707881 30 31
3.6366942 -0.31527591 -0.075076558 29 46
3.5319185 -0.41095787 -0.42281422 30 10
3.6106567 -0.20701972 -0.18075128 43 29
3.6228275 -0.20771934 -0.13048059 40 37
3.5273352 -0.099063873 -0.51262587 43 7
3.6808467 0.0048164488 -0.043895353 29 51
3.6056771 0.11063313 -0.24910536 38 23
3.5640435 -0.10008923 -0.38278222 38 12
3.7061052 0.0042136973 0.0070458893 35 59
3.6188047 0.11041347 -0.19977409 33 27
3.5740004 -0.10099163 -0.33393782 37 16
3.646229 0.11063354 -0.15075061 40 34
3.5932443 -0.10216017 -0.28568956 34 20
3.6529763 0.11084323 -0.10044527 51 42
3.606859 -0.10254522 -0.23663759 32 24
3.61976 -0.10417464 -0.18726087 23 28
3.6369889 -0.10530322 -0.13775982 42 36
3.5675852 0.10631981 -0.34580314 32 15
3.648535 -0.10627314 -0.087692082 17 44
3.5870261 0.10628716 -0.29769194 37 19
3.6694036 -0.10687792 -0.036796656 37 52
3.6898594 -0.096514389 0.013396244 38 60
3.6843185 -0.096370257 0.064338222 35 68
3.6482108 0.011126849 -0.14444651 33 35
3.6930399 -0.097242109 0.11560185 42 72
3.6598721 0.011167556 -0.094259478 23 43
3.6987772 0.11937486 -0.0505323 58 50
3.6406581 0.22402081 -0.15705425 43 33
3.576638 -0.31696248 -0.27288345 43 21
3.5850027 -0.31833822 -0.22354078 43 25
3.5193689 -0.52218419 -0.35712507 25 14
3.5927398 -0.31902874 -0.17401521 52 30
3.5337751 -0.52496773 -0.30816889 28 18
3.6146662 -0.32162151 -0.12483712 48 38
3.5375531 -0.52616411 -0.25937814 49 22
3.6387713 -0.21692029 -0.081271872 14 45
3.5443978 -0.31658497 -0.44185975 56 9
3.6594779 -0.21879873 -0.031044299 53 53
3.5525882 -0.31732026 -0.37046033 56 13
3.66451 -0.21974222 0.019667147 50 61
3.5623012 -0.31881896 -0.32158136 38 17
3.5333009 -0.21247393 -0.47058439 52 8
3.5716155 -0.42761722 -0.16731346 31 31
3.6305928 -0.32751709 -0.074972712 36 46
3.5255337 -0.42268938 -0.42221788 34 10
3.6099122 -0.219622 -0.18075128 37 29
3.6220803 -0.22036411 -0.13048059 40 37
3.5269678 -0.11137597 -0.51262587 38 7
3.6808412 -0.008032646 -0.043895353 29 51
3.6060417 0.098046295 -0.24910536 40 23
3.5636723 -0.11252946 -0.38278222 41 12
3.7010977 -0.0087139662 0.0070362901 35 59
3.619168 0.097780809 -0.19977409 35 27
3.5786016 -0.11362384 -0.33440751 23 16
3.6415992 0.097767405 -0.1505421 49 34
3.5928659 -0.1147023 -0.28568956 29 20
3.6533408 0.098091289 -0.10044527 50 42
3.6064792 -0.11513487 -0.23663759 23 24
3.6243649 -0.11696965 -0.18752168 23 28
3.6365991 -0.11799804 -0.13775982 34 36
3.5679348 0.093865961 -0.34580314 37 15
3.6481416 -0.11900825 -0.087692082 20 44
3.5823946 0.093631558 -0.29727444 39 19
3.669008 -0.11968588 -0.036796656 37 52
3.6795044 -0.1090989 0.013359592 23 60
3.6889567 -0.10937779 0.064426363 26 68
3.6482272 -0.0016083571 -0.14444651 35 35
3.692678 -0.11013263 0.11560185 40 72
3.6598885 -0.0016083571 -0.094259478 25 43
3.5351152 -0.0022253511 -0.56922215 43 6
3.6941741 0.10631553 -0.05046336 81 50
3.6264579 0.21042763 -0.15640257 74 33
3.5705459 -0.32898575 -0.27250072 48 21
3.5838695 -0.33085027 -0.22354078 54 25
3.5224414 -0.53521842 -0.35762948 28 14
3.5916042 -0.33156779 -0.17401521 52 30
3.5319209 -0.53729963 -0.30816889 29 18
3.608546 -0.33377463 -0.12466349 45 38
3.633003 -0.22930504 -0.081159316 14 45
3.5383315 -0.32849443 -0.44123739 57 9
3.6537025 -0.23125482 -0.03100154 38 53
3.5514591 -0.32971919 -0.37046033 55 13
3.6637206 -0.2325324 0.019667147 38 61
3.5611665 -0.3312518 -0.32158136 50 17
3.5325375 -0.22480613 -0.47058439 25 8
3.6294274 -0.34018826 -0.074972712 42 46
3.5289633 -0.43560511 -0.42281422 42 10
3.6091235 -0.2322216 -0.18075128 37 29
3.6262753 -0.23332775 -0.13066205 39 37
3.5265577 -0.12368671 -0.51262587 29 7
3.6757915 -0.020854954 -0.043835141 33 51
3.6063621 0.085458264 -0.24910536 40 23
3.5682259 -0.12514178 -0.38332134 25 12
3.6960444 -0.021606103 0.007026691 35 59
3.6194873 0.085146964 -0.19977409 46 27
3.5781829 -0.12611479 -0.33440751 23 16
3.7005889 -0.02163069 0.058206901 55 67
3.6469126 0.085175574 -0.15075061 49 34
3.5924437 -0.12724304 -0.28568956 36 20
3.6536613 0.085338145 -0.10044527 43 42
3.6060553 -0.12772313 -0.23663759 25 24
3.6189444 -0.12944259 -0.18726087 24 28
3.6311717 -0.13051268 -0.13756876 39 36
3.5682406 0.081410982 -0.34580314 45 15
3.6377137 -0.13138258 -0.087449506 25 44
3.5876808 0.081242613 -0.29769194 39 19
3.6685679 -0.13249239 -0.036796656 23 52
3.6840985 -0.122107 0.013377918 28 60
3.6835561 -0.1220891 0.064338222 20 68
3.6481993 -0.014343036 -0.14444651 39 35
3.6922708 -0.1230218 0.11560185 29 72
3.6598606 -0.014383742 -0.094259478 28 43
3.5252154 -0.014529016 -0.56761646 59 6
3.6845269 0.09315981 -0.050325483 82 50
3.6371455 0.19832185 -0.15683702 43 33
3.5743382 -0.34192422 -0.27288345 43 21
3.5826929 -0.34335831 -0.22354078 44 25
3.5205519 -0.54751068 -0.35762948 31 14
3.590425 -0.34410283 -0.17401521 49 30
3.5201819 -0.54808217 -0.30730081 32 18
3.6023853 -0.34588897 -0.12448987 44 38
3.6321805 -0.24198517 -0.081159316 14 45
3.5371633 -0.34084353 -0.44123739 51 9
3.6528728 -0.24400723 -0.03100154 25 53
3.5502865 -0.34211406 -0.37046033 49 13
3.6578982 -0.24498492 0.019640094 37 61
3.5599887 -0.34368056 -0.32158136 45 17
3.5317311 -0.23713562 -0.47058439 25 8
3.5224969 -0.44729173 -0.42221788 55 10
3.6033084 -0.2444796 -0.18049918 34 29
3.6254387 -0.24598439 -0.13066205 38 37
3.5310476 -0.13618584 -0.51335198 25 7
3.6756961 -0.033685733 -0.043835141 42 51
3.611625 0.072973646 -0.24945329 41 23
3.5677671 -0.13759646 -0.38332134 25 12
3.7009466 -0.034552079 0.0070362901 35 59
3.6197624 0.072512075 -0.19977409 52 27
3.5777211 -0.13860421 -0.33440751 23 16
3.6954918 -0.034503523 0.058127493 60 67
3.6421928 0.072342068 -0.1505421 47 34
3.5919776 -0.13978225 -0.28568956 30 20
3.6539366 0.072583966 -0.10044527 42 42
3.6006021 -0.14011659 -0.2363071 23 24
3.6084919 -0.14168394 -0.18673925 20 28
3.6356866 -0.14338319 -0.13775982 35 36
3.573478 0.069054864 -0.34629017 53 15
3.6422272 -0.14427686 -0.087570786 20 44
3.5879424 0.068718784 -0.29769194 43 19
3.668083 -0.14529726 -0.036796656 30 52
3.6836498 -0.13496615 0.013377918 28 60
3.6781116 -0.13476405 0.064250089 20 68
3.6531227 -0.027112417 -0.14464629 43 35
3.6597879 -0.027158951 -0.094259478 33 43
3.5399485 -0.026940171 -0.57002503 60 6
3.6898282 0.080410399 -0.050394423 46 50
3.6378155 0.18562464 -0.15683702 48 33
3.5731227 -0.35439891 -0.27288345 40 21
3.5814726 -0.35586214 -0.22354078 40 25
3.5186193 -0.55979639 -0.35762948 33 14
3.5842328 -0.35613766 -0.17377184 42 30
3.5330021 -0.56273252 -0.30860293 33 18
3.601156 -0.35846156 -0.12448987 40 38
3.6313138 -0.25466236 -0.081159316 14 45
3.5359519 -0.35318843 -0.44123739 38 9
3.647011 -0.25640523 -0.030958777 25 53
3.5490706 -0.35450479 -0.37046033 43 13
3.5587673 -0.35610515 -0.32158136 30 17
3.5308821 -0.24946222 -0.47058439 23 8
3.5209141 -0.45958486 -0.42221788 58 10
3.6024332 -0.25705603 -0.18049918 23 29
3.6145902 -0.2579253 -0.13029911 30 37
3.5256083 -0.14830351 -0.51262587 28 7
3.6805553 -0.046577178 -0.043895353 42 51
3.6018834 0.060192183 -0.24875745 43 23
3.567265 -0.15004945 -0.38332134 29 12
3.6958036 -0.047408622 0.007026691 36 59
3.6150022 0.059790049 -0.19949587 48 27
3.5772157 -0.15109195 -0.33440751 30 16
3.695349 -0.047402985 0.058127493 58 67
3.6524129 0.059798885 -0.15095912 44 34
3.5914676 -0.15231973 -0.28568956 31 20
3.6541679 0.059828904 -0.10044527 35 42
3.6050756 -0.15289484 -0.23663759 25 24
3.6129642 -0.15449165 -0.18700007 23 28
3.6301723 -0.15585965 -0.13756876 40 36
3.568722 0.056498177 -0.34580314 52 15
3.6417015 -0.15698972 -0.087570786 23 44
3.5881605 0.056194097 -0.29769194 47 19
3.6625586 -0.15788577 -0.03674604 32 52
3.6831558 -0.14782368 0.013377918 38 60
3.5243011 0.16923231 -0.39790976 43 11
3.6776185 -0.14760225 0.064250089 23 68
3.6480103 -0.039811712 -0.14444651 49 35
3.6546729 -0.039881486 -0.094129458 52 43
3.5299633 -0.039191648 -0.56841934 58 6
3.6800892 0.067339793 -0.050256547 50 50
3.7104301 0.067917079 0.00064140849 68 58
3.6284626 0.1724406 -0.15640257 43 33
3.5619459 -0.3658461 -0.272118 34 21
3.5702813 -0.36733574 -0.22291462 29 25
3.516644 -0.57207531 -0.35762948 37 14
3.582968 -0.3686468 -0.17377184 23 30
3.5162697 -0.57264405 -0.30730081 29 18
3.5949118 -0.3705152 -0.12431624 43 38
3.6353877 -0.26770434 -0.081271872 24 45
3.5346975 -0.36552909 -0.44123739 36 9
3.6411078 -0.26876533 -0.030916018 23 53
3.5428655 -0.3663775 -0.36993852 41 13
3.5525501 -0.36801007 -0.32112908 23 17
3.5349317 -0.26215303 -0.47125003 25 8
3.5242083 -0.47253576 -0.42281422 52 10
3.6015139 -0.2696293 -0.18049918 20 29
3.6136677 -0.27054101 -0.13029911 36 37
3.525069 -0.16060928 -0.51262587 39 7
3.6753712 -0.059345905 -0.043835141 40 51
3.607059 0.047688533 -0.24910536 44 23
3.5667195 -0.16250062 -0.38332134 33 12
3.6956158 -0.060309097 0.007026691 36 59
3.6151888 0.047170974 -0.19949587 31 27
3.5766664 -0.16357784 -0.33440751 32 16
3.6951609 -0.060301874 0.058127493 52 67
3.6525993 0.047049217 -0.15095912 44 34
3.5909142 -0.16485538 -0.28568956 36 20
3.6543543 0.047073111 -0.10044527 23 42
3.5995362 -0.16524991 -0.2363071 29 24
3.6173906 -0.16733229 -0.18726087 28 28
3.6296058 -0.16853037 -0.13756876 50 36
3.5688975 0.044040672 -0.34580314 44 15
3.6411312 -0.16970067 -0.087570786 28 44
3.5833528 0.043604389 -0.29727444 41 19
3.6619852 -0.17066953 -0.03674604 46 52
3.6826177 -0.16067937 0.013377918 49 60
3.519908 0.15670297 -0.39734378 41 11
3.6770811 -0.16043861 0.064250089 25 68
3.6478493 -0.052545406 -0.14444651 55 35
3.6545115 -0.052638434 -0.094129458 38 43
3.5248699 -0.051443513 -0.56761646 34 6
3.6753025 0.054415815 -0.050187606 36 50
3.7056448 0.054887176 0.00064053579 66 58
3.6240525 0.15954901 -0.15618534 36 33
3.6558378 0.16098125 -0.10690824 73 41
3.560647 -0.37827739 -0.272118 29 21
3.5739388 -0.38032636 -0.22322769 28 25
3.5146255 -0.58434713 -0.35762948 43 14
3.5816591 -0.38115144 -0.17377184 25 30
3.524075 -0.58656067 -0.30816889 38 18
3.5935965 -0.3830615 -0.12431624 43 38
3.6294475 -0.28000736 -0.081159316 28 45
3.5334001 -0.37786523 -0.44123739 28 9
3.6451321 -0.28185973 -0.030958777 25 53
3.5415649 -0.37874213 -0.36993852 29 13
3.5512438 -0.38040859 -0.32112908 31 17
3.5339952 -0.27449062 -0.47125003 28 8
3.5176198 -0.48415402 -0.42221788 49 10
3.6055293 -0.28259021 -0.18075128 25 29
3.6127012 -0.28315341 -0.13029911 54 37
3.524487 -0.17291309 -0.51262587 48 7
3.6701431 -0.072078995 -0.043774929 46 51
3.602216 0.035045024 -0.24875745 40 23
3.5611658 -0.17470698 -0.38278222 37 12
3.6953828 -0.073208839 0.007026691 36 59
3.6203232 0.034602728 -0.19977409 32 27
3.5760734 -0.17606173 -0.33440751 28 16
3.6899297 -0.073103182 0.058048084 29 67
3.6527412 0.034298982 -0.15095912 43 34
3.5903168 -0.177389 -0.28568956 46 20
3.6494987 0.034266155 -0.10030653 29 42
3.5989373 -0.17781362 -0.2363071 43 24
3.6068103 -0.17946352 -0.18673925 33 28
3.6289957 -0.18119903 -0.13756876 53 36
3.5690293 0.031582624 -0.34580314 30 15
3.6405165 -0.18240957 -0.087570786 30 44
3.583483 0.031095888 -0.29727444 31 19
3.6613669 -0.18345121 -0.03674604 42 52
3.6770401 -0.17329848 0.013359592 54 60
3.5353239 0.14504193 -0.3990418 67 11
3.671505 -0.17303842 0.064161956 25 68
3.6476436 -0.065278456 -0.14444651 48 35
3.6543055 -0.065394737 -0.094129458 43 43
3.5345378 -0.063921273 -0.56922215 54 6
3.6704712 0.041526079 -0.05011867 33 50
3.7008142 0.041891519 0.00063966314 58 58
3.6345692 0.1473126 -0.1566198 39 33
3.6463904 0.14780392 -0.10661332 78 41
3.559305 -0.39070404 -0.272118 30 21
3.5725896 -0.39279944 -0.22322769 36 25
3.5076609 -0.59577382 -0.35712507 56 14
3.580307 -0.39365146 -0.17377184 23 30
3.587271 -0.39505395 -0.12414261 38 38
3.628448 -0.29267475 -0.081159316 36 45
3.5369904 -0.39074379 -0.44185975 25 9
3.6341593 -0.29377472 -0.030873258 39 53
3.5451636 -0.39165044 -0.37046033 28 13
3.5548429 -0.39335227 -0.32158136 23 17
3.5330155 -0.28682494 -0.47125003 34 8
3.5159085 -0.49642989 -0.42221788 48 10
3.5995436 -0.2947658 -0.18049918 30 29
3.6166708 -0.29617089 -0.13048059 43 37
3.5238619 -0.18521479 -0.51262587 53 7
3.6748676 -0.085003182 -0.043835141 42 51
3.5973284 0.022435911 -0.24840954 30 23
3.5605342 -0.18713671 -0.38278222 52 12
3.6901059 -0.085993379 0.0070170918 35 59
3.6204219 0.02196523 -0.19977409 27 27
3.570466 -0.18828209 -0.33393782 29 16
3.689652 -0.085982993 0.058048084 41 67
3.6528387 0.021548327 -0.15095912 42 34
3.5846987 -0.18965788 -0.28528944 50 20
3.6495962 0.021526821 -0.10030653 31 42
3.5982947 -0.19037518 -0.2363071 49 24
3.6061618 -0.19205254 -0.18673925 45 28
3.6233521 -0.19359967 -0.13737769 51 36
3.569118 0.019124195 -0.34580314 31 15
3.6448493 -0.19538307 -0.087692082 40 44
3.5835698 0.01858701 -0.29727444 30 19
3.6656969 -0.19649754 -0.036796656 42 52
3.6764126 -0.1861327 0.013359592 48 60
3.5358086 0.13270046 -0.3990418 62 11
3.6708784 -0.18585333 0.064161956 37 68
3.6423979 -0.077906072 -0.14424671 47 35
3.6490574 -0.078045569 -0.093999453 20 43
3.5342934 -0.076258726 -0.56922215 38 6
3.6705937 0.028713489 -0.05011867 25 50
3.7059379 0.029015768 0.00064053579 47 58
3.6400526 0.13481471 -0.15683702 40 33
3.6568723 0.13545497 -0.10690824 40 41
3.5628729 -0.40368947 -0.27250072 31 21
3.5711968 -0.40526769 -0.22322769 29 25
3.5104604 -0.60886937 -0.35762948 62 14
3.5789113 -0.40614665 -0.17377184 28 30
3.627404 -0.30533865 -0.081159316 25 45
3.535605 -0.40308782 -0.44185975 28 9
3.5388346 -0.40345749 -0.36993852 29 13
3.5534487 -0.40575859 -0.32158136 30 17
3.5319924 -0.29915571 -0.47125003 44 8
3.514154 -0.50869972 -0.42221788 38 10
3.5984926 -0.30732876 -0.18049918 41 29
3.6156149 -0.30879363 -0.13048059 42 37
3.5231938 -0.19751424 -0.51262587 54 7
3.6745484 -0.09783034 -0.043835141 33 51
3.5973847 0.0098787546 -0.24840954 31 23
3.559859 -0.19956414 -0.38278222 47 12
3.6947815 -0.099005476 0.007026691 34 59
3.620477 0.0093274666 -0.19977409 19 27
3.5697873 -0.20074418 -0.33393782 47 16
3.6843314 -0.098730005 0.057968672 28 67
3.6379051 0.0087503241 -0.1503336 35 34
3.5840149 -0.20216966 -0.28528944 50 20
3.6496491 0.0087872203 -0.10030653 21 42
3.592627 -0.20265417 -0.23597661 51 24
3.6054695 -0.20463921 -0.18673925 45 28
3.6226542 -0.20624635 -0.13737769 47 36
3.5641866 0.0066525042 -0.34531608 23 15
3.6391542 -0.2078205 -0.087570786 43 44
3.5786304 0.0060657277 -0.29685691 25 19
3.659997 -0.20900768 -0.03674604 42 52
3.6757407 -0.19896464 0.013359592 42 60
3.5362501 0.12035738 -0.3990418 58 11
3.6371098 -0.090497874 -0.14404693 45 35
3.6537597 -0.090904795 -0.094129458 28 43
3.5340054 -0.088595249 -0.56922215 25 6
3.6706717 0.01590055 -0.05011867 22 50
3.6960166 0.016028838 0.00063879049 50 58
3.710649 0.016102903 0.051952355 77 66
3.640501 0.12210774 -0.15683702 42 33
3.6473331 0.12234393 -0.10661332 51 41
3.5614419 -0.41612375 -0.27250072 36 21
3.5747168 -0.41831326 -0.22354078 31 25
3.5034165 -0.62024719 -0.35712507 70 14
3.5824316 -0.41921955 -0.17401521 29 30
3.6312957 -0.31843615 -0.081271872 34 45
3.5292494 -0.41484553 -0.44123739 31 9
3.5423431 -0.41639063 -0.37046033 33 13
3.5520105 -0.41815996 -0.32158136 36 17
3.5309267 -0.31148282 -0.47125003 46 8
3.507447 -0.52023119 -0.4216215 37 10
3.6023724 -0.32033101 -0.18075128 49 29
3.6145151 -0.32141259 -0.13048059 57 37
3.5175445 -0.20951787 -0.51189977 49 7
3.6691871 -0.11050799 -0.043774929 29 51
3.5973973 -0.002679022 -0.24840954 34 23
3.5541787 -0.21169434 -0.38224307 46 12
3.6944134 -0.11190207 0.007026691 31 59
3.6204872 -0.0033109162 -0.19977409 20 27
3.5690644 -0.21320385 -0.33393782 44 16
3.6889617 -0.11173932 0.058048084 25 67
3.6379135 -0.0039488934 -0.1503336 33 34
3.5832875 -0.21467899 -0.28528944 47 20
3.6496575 -0.0039529926 -0.10030653 22 42
3.5968781 -0.21549118 -0.2363071 52 24
3.7040658 0.10359757 -0.057005908 68 49
3.6097174 -0.21752304 -0.18700007 44 28
3.621912 -0.2188905 -0.13737769 43 36
3.5641882 -0.0057893647 -0.34531608 23 15
3.6384068 -0.22052227 -0.087570786 34 44
3.5786297 -0.006426557 -0.29685691 36 19
3.6542544 -0.22148046 -0.036695428 32 52
3.6700318 -0.21150719 0.013341267 41 60
3.5416141 0.10816975 -0.39960784 61 11
3.6367719 -0.10319322 -0.14404693 41 35
3.6484241 -0.10351869 -0.093999453 28 43
3.5386081 -0.10106935 -0.57002503 28 6
3.6707048 0.0030874191 -0.05011867 25 50
3.6960502 0.003127235 0.00063879049 49 58
3.7156823 0.0031580757 0.052023035 74 66
3.6409051 0.10939927 -0.15683702 45 33
3.647738 0.10961161 -0.10661332 51 41
3.5599678 -0.42855296 -0.27250072 40 21
3.5732343 -0.43078879 -0.22354078 40 25
3.50123 -0.63247257 -0.35712507 49 14
3.5759883 -0.43112203 -0.17377184 29 30
3.6251841 -0.33065501 -0.081159316 47 45
3.5277798 -0.42716235 -0.44123739 33 9
3.540868 -0.42875317 -0.37046033 38 13
3.550529 -0.43055624 -0.32158136 42 17
3.5298178 -0.32380617 -0.47125003 49 8
3.5105171 -0.53322047 -0.42221788 37 10
3.5962596 -0.3324433 -0.18049918 50 29
3.6133711 -0.33402768 -0.13048059 41 37
3.5167918 -0.22179513 -0.51189977 45 7
3.6687789 -0.12331517 -0.043774929 29 51
3.5973661 -0.015236265 -0.24840954 30 23
3.5534182 -0.22409946 -0.38224307 43 12
3.6790087 -0.12429735 0.0069978931 20 59
3.6204536 -0.015948756 -0.19977409 26 27
3.5682986 -0.22566092 -0.33393782 44 16
3.6885493 -0.12461551 0.058048084 23 67
3.642873 -0.01666674 -0.1505421 41 34
3.5825162 -0.22718568 -0.28528944 41 20
3.6496215 -0.016692651 -0.10030653 25 42
3.5961039 -0.22804531 -0.2363071 43 24
3.6844137 0.090157814 -0.056695253 72 49
3.6039529 -0.22980496 -0.18673925 42 28
3.6211259 -0.23153201 -0.13737769 43 36
3.5641463 -0.018230667 -0.34531608 28 15
3.632627 -0.23290226 -0.087449506 14 44
3.5785856 -0.018918267 -0.29685691 29 19
3.6534595 -0.23423484 -0.036695428 36 52
3.669271 -0.2243167 0.013341267 41 60
3.5519018 0.096085705 -0.40073988 62 11
3.6363893 -0.11588728 -0.14404693 33 35
3.6480401 -0.11625344 -0.093999453 20 43
3.5333006 -0.1132649 -0.56922215 25 6
3.6656935 -0.0097166616 -0.050049726 30 50
3.6910386 -0.0097653214 0.00063791784 45 58
3.6956728 -0.0097742174 0.051740304 66 66
3.6362715 0.096551746 -0.1566198 49 33
3.6480982 0.09687797 -0.10661332 50 41
3.5584502 -0.44097698 -0.27250072 43 21
3.5618052 -0.44202554 -0.22291462 40 25
3.5794172 -0.44421923 -0.17401521 38 30
3.6240077 -0.34330729 -0.081159316 46 45
3.5262673 -0.43947402 -0.44123739 56 9
3.5344155 -0.44049329 -0.36993852 54 13
3.5490048 -0.4429473 -0.32158136 34 17
3.5286663 -0.33612555 -0.47125003 56 8
3.5086343 -0.54547125 -0.42221788 33 10
3.595077 -0.34499454 -0.18049918 44 29
3.6072092 -0.34616059 -0.13029911 62 37
3.5209324 -0.23439753 -0.51262587 43 7
3.6733224 -0.13630405 -0.043835141 27 51
3.6022787 -0.027828146 -0.24875745 39 23
3.5526142 -0.23650183 -0.38224307 38 12
3.6835489 -0.13732283 0.0070074922 14 59
3.6203759 -0.028586399 -0.19977409 33 27
3.5625224 -0.23778448 -0.33346814 37 16
3.6880918 -0.1374902 0.058048084 21 67
3.6477885 -0.029419258 -0.15075061 45 34
3.5767288 -0.23935756 -0.28488931 33 20
3.6495411 -0.029432105 -0.10030653 30 42
3.58533 -0.23993188 -0.2356461 29 24
3.6947021 0.077516131 -0.056850582 73 49
3.6031287 -0.24238372 -0.18673925 14 28
3.6252804 -0.24450614 -0.13756876 42 36
3.569037 -0.030710833 -0.34580314 32 15
3.6317916 -0.24558109 -0.087449506 14 44
3.5884624 -0.031489749 -0.29769194 37 19
3.6526194 -0.24698637 -0.036695428 36 52
3.6634762 -0.2368017 0.013322941 40 60
3.5571821 0.083808906 -0.40130588 60 11
3.6309695 -0.12840559 -0.14384714 34 35
3.6376216 -0.12863788 -0.09373942 23 43
3.537816 -0.12577082 -0.57002503 25 6
3.6656373 -0.022512261 -0.050049726 38 50
3.6959817 -0.022676442 0.00063879049 50 58
3.7056146 -0.02272856 0.051881671 36 66
3.6415803 0.083978489 -0.15683702 55 33
3.6484144 0.084143132 -0.10661332 45 41
3.5568893 -0.45339555 -0.27250072 44 21
3.5651901 -0.45508987 -0.22322769 57 25
3.6277621 -0.35644484 -0.081271872 41 45
3.5247118 -0.45178029 -0.44123739 53 9
3.5328565 -0.45282799 -0.36993852 63 13
3.547437 -0.45533291 -0.32158136 38 17
3.5274713 -0.34844089 -0.47125003 46 8
3.5067091 -0.55771536 -0.42221788 35 10
3.5938511 -0.35754159 -0.18049918 42 29
3.601007 -0.35825458 -0.13011762 49 37
3.5200927 -0.24668644 -0.51262587 29 7
3.6728241 -0.14912552 -0.043835141 29 51
3.6071475 -0.040454507 -0.24910536 40 23
3.556726 -0.24924809 -0.38278222 28 12
3.6880431 -0.15038152 0.0070170918 30 59
3.615262 -0.041170545 -0.19949587 37 27
3.5666363 -0.25056663 -0.33393782 23 16
3.6825938 -0.1501617 0.057968672 23 67
3.6426682 -0.042098176 -0.1505421 49 34
3.5708995 -0.25149179 -0.28448918 29 20
3.6394205 -0.042063035 -0.10002906 36 42
3.5844705 -0.25244555 -0.2356461 20 24
3.679955 0.064341284 -0.056617588 49 49
3.6022606 -0.25495949 -0.18673925 22 28
3.6144373 -0.25645348 -0.13718662 33 36
3.568908 -0.04316891 -0.34580314 39 15
3.6309125 -0.25825691 -0.087449506 14 44
3.5883307 -0.044015627 -0.29769194 39 19
3.6517351 -0.25973487 -0.036695428 28 52
3.6626275 -0.24958818 0.013322941 38 60
3.5574532 0.071391515 -0.40130588 49 11
3.6304991 -0.14107925 -0.14384714 37 35
3.6421449 -0.14152664 -0.093869433 25 43
3.532424 -0.13792902 -0.56922215 30 6
3.6705358 -0.035352089 -0.05011867 40 50
3.6908803 -0.035533186 0.00063791784 48 58
3.6955144 -0.035574432 0.051740304 48 66
3.636857 0.071163625 -0.1566198 54 33
3.7044246 -0.03630035 0.10311269 84 71
3.6486859 0.071407273 -0.10661332 43 41
3.555285 -0.46580869 -0.27250072 53 21
3.56358 -0.46753195 -0.22322769 60 25
3.5231133 -0.46408111 -0.44123739 48 9
3.5312543 -0.46515724 -0.36993852 52 13
3.5458257 -0.467713 -0.32158136 53 17
3.5262337 -0.3607519 -0.47125003 23 8
3.5096402 -0.57075316 -0.42281422 62 10
3.5876138 -0.36957186 -0.18024708 37 29
3.5997348 -0.37082228 -0.13011762 42 37
3.5192103 -0.25897235 -0.51262587 30 7
3.6622918 -0.16150899 -0.043714713 37 51
3.6019969 -0.052975915 -0.24875745 40 23
3.5558343 -0.26166186 -0.38278222 25 12
3.6825004 -0.16303529 0.0070074922 38 59
3.6150961 -0.053789914 -0.19949587 46 27
3.5657399 -0.26301503 -0.33393782 23 16
3.6770527 -0.16279648 0.057889268 25 67
3.6375039 -0.054741714 -0.1503336 49 34
3.5749702 -0.26432183 -0.28488931 30 20
3.6492467 -0.054909784 -0.10030653 40 42
3.5885432 -0.26532331 -0.23597661 28 24
3.675158 0.051420406 -0.056539923 38 49
3.6013489 -0.26753217 -0.18673925 17 28
3.7155974 0.051378816 -0.0057810443 62 57
3.6185029 -0.26943895 -0.13737769 31 36
3.5687356 -0.055626459 -0.34580314 46 15
3.6349733 -0.27130085 -0.087570786 20 44
3.583173 -0.056466185 -0.29727444 39 19
3.6458199 -0.27210882 -0.036644813 20 52
3.5576804 0.058973253 -0.40130588 44 11
3.6299849 -0.15375119 -0.14384714 41 35
3.6466231 -0.15444854 -0.093999453 30 43
3.512198 -0.14942856 -0.56601071 40 6
3.6703901 -0.048164435 -0.05011867 40 50
3.6907339 -0.048416544 0.00063791784 48 58
3.6953678 -0.048473969 0.051740304 41 66
3.6420777 0.058553629 -0.15683702 50 33
3.6642945 -0.048728541 0.10198884 77 71
3.6489129 0.058670551 -0.10661332 35 41
3.553637 -0.47821608 -0.27250072 48 21
3.5569813 -0.47929969 -0.22291462 43 25
3.521472 -0.47637627 -0.44123739 61 9
3.5345366 -0.47814965 -0.37046033 44 13
3.5441716 -0.48008743 -0.32158136 41 17
3.5249529 -0.37305859 -0.47125003 35 8
3.5076265 -0.58300066 -0.42281422 65 10
3.5813365 -0.38156298 -0.179995 27 29
3.5934496 -0.38285533 -0.12993616 42 37
3.5182848 -0.27125511 -0.51262587 30 7
3.6617055 -0.17429179 -0.043714713 44 51
3.5968027 -0.065461852 -0.24840954 42 23
3.5548992 -0.27407244 -0.38278222 28 12
3.6819091 -0.17588861 0.0070074922 46 59
3.6148865 -0.066408619 -0.19949587 50 27
3.5648 -0.27546015 -0.33393782 23 16
3.6764622 -0.17563081 0.057889268 28 67
3.6422853 -0.067527562 -0.1505421 46 34
3.5740259 -0.27679917 -0.28488931 30 20
3.6490328 -0.067647696 -0.10030653 45 42
3.587595 -0.27784804 -0.23597661 30 24
3.6703165 0.038533814 -0.056462258 31 49
3.6003931 -0.2801016 -0.18673925 23 28
3.7057545 0.038295202 -0.0057653352 77 57
3.6175404 -0.28206825 -0.13737769 36 36
3.5635443 -0.067992136 -0.34531608 53 15
3.6240373 -0.28321025 -0.08732821 20 44
3.5779724 -0.068881281 -0.29685691 45 19
3.6448479 -0.28483346 -0.036644813 23 52
3.5578644 0.046554267 -0.40130588 40 11
3.629426 -0.16642128 -0.14384714 45 35
3.6460617 -0.16717669 -0.093999453 32 43
3.5165851 -0.16191226 -0.56681359 35 6
3.6652007 -0.060896792 -0.050049726 45 50
3.6905427 -0.061299317 0.00063791784 45 58
3.6801796 -0.061134711 0.051528253 38 66
3.6422598 0.045840047 -0.15683702 48 33
3.6940863 -0.062000513 0.10283173 69 71
3.6490953 0.045933109 -0.10661332 31 41
3.5519462 -0.49061766 -0.27250072 46 21
3.5552866 -0.49171299 -0.22291462 55 25
3.5197875 -0.48866558 -0.44123739 46 9
3.527921 -0.48979852 -0.36993852 41 13
3.542474 -0.49245593 -0.32158136 29 17
3.5236292 -0.38536066 -0.47125003 25 8
3.5006766 -0.59440625 -0.42221788 51 10
3.5849464 -0.39460891 -0.18024708 23 29
3.5920913 -0.39539647 -0.12993616 41 37
3.5222478 -0.28393129 -0.51335198 30 7
3.6660681 -0.18732542 -0.043774929 41 51
3.5965524 -0.078016639 -0.24840954 45 23
3.5588758 -0.28687832 -0.38332134 32 12
3.6762791 -0.18848597 0.0069978931 50 59
3.6146326 -0.079026535 -0.19949587 48 27
3.5687785 -0.28830203 -0.33440751 31 16
3.6708336 -0.18820915 0.057809856 32 67
3.6370332 -0.080134735 -0.1503336 45 34
3.5730381 -0.28927314 -0.28488931 33 20
3.6437774 -0.080278367 -0.1001678 43 42
3.5816305 -0.28996751 -0.2356461 28 24
3.6654291 0.025681645 -0.056384593 30 49
3.5944166 -0.29226366 -0.18647844 23 28
3.7058659 0.025359469 -0.0057653352 76 57
3.6165335 -0.2946941 -0.13737769 42 36
3.5682602 -0.080539376 -0.34580314 51 15
3.6230268 -0.29585877 -0.08732821 25 44
3.5826917 -0.081479877 -0.29727444 46 19
3.6438313 -0.29755461 -0.036644813 28 52
3.5580056 0.03413472 -0.40130588 38 11
3.6288228 -0.17908932 -0.14384714 50 35
3.6454558 -0.17990282 -0.093999453 35 43
3.5110691 -0.17394449 -0.56601071 53 6
3.6699646 -0.073787205 -0.05011867 45 50
3.6853068 -0.074084468 0.00063704513 47 58
3.6799438 -0.073980555 0.051528253 34 66
3.6423979 0.033125907 -0.15683702 42 33
3.6638653 -0.074308746 0.10198884 87 71
3.6442361 0.033144519 -0.10646585 30 41
3.5452764 -0.50231171 -0.272118 58 21
3.5180604 -0.50094897 -0.44123739 33 9
3.5261898 -0.50211024 -0.36993852 36 13
3.5358043 -0.50411344 -0.32112908 28 17
3.5271864 -0.39821473 -0.4719156 28 8
3.5034711 -0.60747409 -0.42281422 51 10
3.5885086 -0.40768474 -0.18049918 25 29
3.5212348 -0.29622453 -0.51335198 41 7
3.6653917 -0.20012124 -0.043774929 43 51
3.6012444 -0.090692334 -0.24875745 41 23
3.5528991 -0.29888344 -0.38278222 34 12
3.6805913 -0.20158871 0.0070074922 36 59
3.6143348 -0.091643475 -0.19949587 32 27
3.5677507 -0.30075762 -0.33440751 28 16
3.6701543 -0.20102163 0.057809856 49 67
3.6317368 -0.092706062 -0.15012509 44 34
3.5720065 -0.30174363 -0.28488931 37 20
3.6484716 -0.093120895 -0.10030653 29 42
3.5805964 -0.30246797 -0.2356461 36 24
3.6654963 0.012886752 -0.056384593 21 49
3.5983498 -0.30523005 -0.18673925 29 28
3.7009315 0.012401614 -0.0057574804 42 57
3.6154828 -0.30731636 -0.13737769 50 36
3.5679574 -0.092994444 -0.34580314 46 15
3.6219721 -0.30850369 -0.08732821 29 44
3.5823853 -0.093985304 -0.29727444 39 19
3.637789 -0.30984858 -0.036594201 40 52
3.5581028 0.021714754 -0.40130588 28 11
3.6281755 -0.19175519 -0.14384714 54 35
3.6448054 -0.19262673 -0.093999453 41 43
3.5104406 -0.18619934 -0.56601071 42 6
3.6646862 -0.086483024 -0.050049726 31 50
3.6900246 -0.087062463 0.00063791784 44 58
3.6746647 -0.086711213 0.051457569 33 66
3.6424911 0.020411367 -0.15683702 33 33
3.6585867 -0.086982436 0.10184837 41 71
3.6493273 0.020456705 -0.10661332 30 41
3.5533679 -0.51612157 -0.27288345 42 21
3.5113816 -0.5125075 -0.44061509 32 9
3.5194952 -0.51369548 -0.36941677 30 13
3.5340233 -0.51645261 -0.32112908 28 17
3.525775 -0.41052452 -0.4719156 31 8
3.5013294 -0.61969978 -0.42281422 48 10
3.582104 -0.41962674 -0.18024708 28 29
3.5201795 -0.30851415 -0.51335198 49 7
3.6596794 -0.21262681 -0.043714713 41 51
3.5959198 -0.1031232 -0.24840954 36 23
3.5518343 -0.31128359 -0.38278222 51 12
3.6798651 -0.21443512 0.0070074922 35 59
3.6090028 -0.10411903 -0.19921762 32 27
3.5617201 -0.31277487 -0.33393782 30 16
3.6263976 -0.1052414 -0.14991659 42 34
3.575896 -0.31464651 -0.28528944 43 20
3.6381321 -0.10557327 -0.10002906 35 42
3.5844889 -0.31540132 -0.23597661 49 24
3.6655192 9.170291e-05 -0.056384593 24 49
3.5972626 -0.31778878 -0.18673925 33 28
3.6909528 -0.00052585197 -0.0057417713 42 57
3.6143882 -0.31993487 -0.13737769 52 36
3.5676112 -0.10544837 -0.34580314 32 15
3.7156744 -0.00050427462 0.045600794 78 65
3.6258521 -0.32158574 -0.087449506 37 44
3.5820353 -0.1064896 -0.29727444 29 19
3.558157 0.0092945257 -0.40130588 26 11
3.6224959 -0.20413984 -0.14364736 48 35
3.6441109 -0.20534831 -0.093999453 38 43
3.5097694 -0.19845194 -0.56601071 44 6
3.6593645 -0.099142894 -0.049980789 35 50
3.6946964 -0.10007427 0.00063879049 37 58
3.6743398 -0.099537656 0.051457569 23 66
3.6325498 0.0076651871 -0.15640257 36 33
3.678246 -0.10028306 0.10241029 32 71
3.6443787 0.0077023506 -0.10646585 26 41
3.5416832 -0.52704996 -0.272118 37 21
3.5144773 -0.52549726 -0.44123739 31 9
3.5225983 -0.52671528 -0.36993852 32 13
3.5371227 -0.52952498 -0.32158136 29 17
3.5243204 -0.42282924 -0.4719156 29 8
3.4991448 -0.63191795 -0.42281422 46 10
3.5806174 -0.43212804 -0.18024708 29 29
3.5190814 -0.32079998 -0.51335198 57 7
3.6589153 -0.22540019 -0.043714713 51 51
3.5955381 -0.11567467 -0.24840954 23 23
3.5507262 -0.32367986 -0.38278222 53 12
3.6741037 -0.22697283 0.0069978931 35 59
3.6136069 -0.11687385 -0.19949587 18 27
3.5556495 -0.32475367 -0.33346814 28 16
3.631001 -0.1180579 -0.15012509 36 34
3.5747762 -0.32712683 -0.28528944 45 20
3.6377413 -0.11827207 -0.10002906 32 42
3.5833662 -0.32791159 -0.23597661 54 24
3.6654971 -0.012703856 -0.056384593 24 49
3.5911589 -0.32988763 -0.18647844 44 28
3.6909285 -0.01341019 -0.0057417713 39 57
3.6132493 -0.33254951 -0.13737769 45 36
3.5672214 -0.11790101 -0.34580314 33 15
3.705651 -0.013448734 0.04547688 80 65
3.6247075 -0.33424035 -0.087449506 42 44
3.5816419 -0.11899258 -0.29727444 27 19
3.5581679 -0.0031258164 -0.40130588 28 11
3.6267483 -0.21707976 -0.14384714 50 35
3.6383822 -0.21777093 -0.093869433 17 43
3.5090551 -0.21070211 -0.56601071 48 6
3.6639934 -0.11206504 -0.050049726 20 50
3.6743336 -0.11237374 0.00063529983 36 58
3.6789675 -0.11251207 0.051528253 19 66
3.6325545 -0.0050153295 -0.15640257 35 33
3.6728776 -0.1129719 0.10226981 35 71
3.6443834 -0.0050194585 -0.10646585 27 41
3.54475 -0.54016274 -0.27250072 31 21
3.5126214 -0.53776187 -0.44123739 28 9
3.5207381 -0.5390082 -0.36993852 34 13
3.535253 -0.54186863 -0.32158136 29 17
3.5228231 -0.43512884 -0.4719156 35 8
3.4773915 -0.64051646 -0.42042878 48 10
3.5840428 -0.44524047 -0.18049918 39 29
3.5179398 -0.3330819 -0.51335198 53 7
3.6581061 -0.23817082 -0.043714713 30 51
3.5951126 -0.12822475 -0.24840954 31 23
3.5446255 -0.33560446 -0.38224307 47 12
3.6732891 -0.23979647 0.0069978931 34 59
3.6081877 -0.12931187 -0.19921762 21 27
3.5544941 -0.33716321 -0.33346814 40 16
3.6205819 -0.13037957 -0.14970808 41 34
3.5686507 -0.33913237 -0.28488931 51 20
3.6323111 -0.13079326 -0.099890321 23 42
3.5772328 -0.33994663 -0.2356461 55 24
3.6654303 -0.025498752 -0.056384593 27 49
3.5899856 -0.34242105 -0.18647844 50 28
3.6858587 -0.02626331 -0.0057339165 39 57
3.6070926 -0.34468552 -0.13718662 45 36
3.5667877 -0.13035221 -0.34580314 25 15
3.7055812 -0.026383787 0.04547688 39 65
3.6185429 -0.34641525 -0.08732821 45 44
3.5812047 -0.13149412 -0.29727444 27 19
3.5531673 -0.015530141 -0.40073988 31 11
3.6259685 -0.22973815 -0.14384714 42 35
3.6375999 -0.23046994 -0.093869433 23 43
3.5082984 -0.22294971 -0.56601071 25 6
3.6635797 -0.12485408 -0.050049726 25 50
3.6789162 -0.12536553 0.00063617248 36 58
3.6735554 -0.12518676 0.051457569 22 66
3.6375101 -0.017714461 -0.1566198 43 33
3.6624706 -0.12545705 0.10198884 39 71
3.6443436 -0.0177407 -0.10646585 28 41
3.5058222 -0.54924983 -0.44061509 31 9
3.5188353 -0.55129462 -0.36993852 36 13
3.5235021 -0.55265796 -0.32067677 29 17
3.5212827 -0.44742313 -0.4719156 55 8
3.4751344 -0.65265089 -0.42042878 48 10
3.5167556 -0.34535977 -0.51335198 49 7
3.6572523 -0.25093853 -0.043714713 25 51
3.5946429 -0.14077325 -0.24840954 36 23
3.5483797 -0.34846053 -0.38278222 46 12
3.6724296 -0.25261721 0.0069978931 33 59
3.6027255 -0.1417135 -0.19893937 24 27
3.5532954 -0.34956867 -0.33346814 47 16
3.6201048 -0.14301696 -0.14970808 37 34
3.5674453 -0.35158721 -0.28488931 48 20
3.6318326 -0.1434716 -0.099890321 23 42
3.5760243 -0.35243142 -0.2356461 39 24
3.665319 -0.038293336 -0.056384593 36 49
3.5887682 -0.35495037 -0.18647844 32 28
3.6857448 -0.039129194 -0.0057339165 45 57
3.6058674 -0.35727453 -0.13718662 43 36
3.5663111 -0.14280182 -0.34580314 25 15
3.7004673 -0.039270528 0.045414925 48 65
3.6272595 -0.36003017 -0.087570786 45 44
3.5807238 -0.14399405 -0.29727444 31 19
3.5530915 -0.027932916 -0.40073988 32 11
3.6251447 -0.24239373 -0.14384714 37 35
3.6317863 -0.24283487 -0.09373942 20 43
3.512423 -0.23552254 -0.56681359 29 6
3.6631215 -0.13764161 -0.050049726 28 50
3.6834526 -0.13839068 0.00063704513 32 58
3.6730959 -0.1380091 0.051457569 25 66
3.6374261 -0.030411633 -0.1566198 47 33
3.6670048 -0.13842559 0.10212933 77 71
3.6442595 -0.030461725 -0.10646585 35 41
3.5087817 -0.56227124 -0.44123739 53 9
3.5119798 -0.56278521 -0.36941677 48 13
3.5412164 -0.56811792 -0.32248595 29 17
3.514786 -0.45906946 -0.47125003 38 8
3.4777105 -0.6657145 -0.42102516 43 10
3.5155289 -0.35763341 -0.51335198 43 7
3.6513672 -0.26334572 -0.043654501 23 51
3.5941298 -0.15332004 -0.24840954 34 23
3.5421963 -0.36034217 -0.38224307 48 12
3.6715255 -0.26543483 0.0069978931 29 59
3.6071973 -0.15449843 -0.19921762 28 27
3.5520537 -0.36196989 -0.33346814 41 16
3.6245749 -0.15586357 -0.14991659 43 34
3.5661964 -0.36403778 -0.28488931 40 20
3.6363034 -0.15635924 -0.10002906 28 42
3.5797358 -0.36541784 -0.23597661 40 24
3.6701624 -0.051152021 -0.056462258 39 49
3.5875077 -0.36747536 -0.18647844 23 28
3.6805866 -0.051929161 -0.0057260618 43 57
3.5996282 -0.36934993 -0.13699555 41 36
3.5707626 -0.15546241 -0.34629017 29 15
3.6903095 -0.052056443 0.045291007 47 65
3.5851777 -0.15670609 -0.29769194 32 19
3.5529723 -0.040335346 -0.40073988 35 11
3.6192927 -0.25469786 -0.14364736 37 35
3.6309164 -0.25551066 -0.09373942 20 43
3.5115793 -0.24778172 -0.56681359 25 6
3.6576231 -0.15022594 -0.049980789 32 50
3.6779511 -0.15104595 0.00063617248 43 58
3.6725914 -0.15082975 0.051457569 27 66
3.6372979 -0.043108433 -0.1566198 52 33
3.634136 -0.043074217 -0.10617094 47 41
3.5067978 -0.5745157 -0.44123739 65 9
3.5149009 -0.57584703 -0.36993852 45 13
3.5244718 -0.57805115 -0.32112908 29 17
3.5180736 -0.47199523 -0.4719156 42 8
3.4607499 -0.67498779 -0.41923609 43 10
3.5142591 -0.36990273 -0.51335198 42 7
3.6554115 -0.27646464 -0.043714713 23 51
3.5935726 -0.16586494 -0.24840954 38 23
3.5409169 -0.3727046 -0.38224307 37 12
3.606636 -0.16708897 -0.19921762 35 27
3.5458179 -0.3738454 -0.33299848 37 16
3.6190178 -0.16828638 -0.14970808 45 34
3.559947 -0.37596121 -0.28448918 33 20
3.6357353 -0.16905135 -0.10002906 34 42
3.5635536 -0.37634155 -0.2349851 29 24
3.6649623 -0.06388095 -0.056384593 45 49
3.5713065 -0.37841967 -0.18569601 23 28
3.6803827 -0.064776488 -0.0057260618 41 57
3.5933485 -0.38138613 -0.13680448 38 36
3.5701981 -0.16792576 -0.34629017 34 15
3.6901052 -0.064937711 0.045291007 43 65
3.5796316 -0.16898851 -0.29727444 36 19
3.5577774 -0.052805785 -0.40130588 59 11
3.6183815 -0.26733002 -0.14364736 32 35
3.6349871 -0.26854944 -0.093869433 25 43
3.5106933 -0.26003793 -0.56681359 25 6
3.6570766 -0.16299251 -0.049980789 40 50
3.6774018 -0.16388348 0.00063617248 52 58
3.6720428 -0.16364858 0.051457569 28 66
3.6371253 -0.055804711 -0.1566198 55 33
3.6389608 -0.055830985 -0.1063184 49 41
3.4998782 -0.5859319 -0.44061509 48 9
3.5128691 -0.58811283 -0.36993852 46 13
3.5322535 -0.5920009 -0.32203367 31 17
3.5114956 -0.48359594 -0.47125003 44 8
3.5129464 -0.38216752 -0.51335198 39 7
3.6494398 -0.28883046 -0.043654501 24 51
3.5979538 -0.17865151 -0.24875745 39 23
3.5395942 -0.38506243 -0.38224307 30 12
3.6010439 -0.17943271 -0.19893937 39 27
3.5444911 -0.38622034 -0.33299848 23 16
3.6233983 -0.18116386 -0.14991659 49 34
3.5536585 -0.38784546 -0.28408906 29 20
3.635123 -0.1817414 -0.10002906 38 42
3.5622182 -0.38877836 -0.2349851 23 24
3.659719 -0.076574199 -0.056306928 42 49
3.5749273 -0.3914263 -0.18595681 20 28
3.6801341 -0.077623032 -0.0057260618 40 57
3.5919952 -0.39392692 -0.13680448 41 36
3.5695901 -0.18038705 -0.34629017 39 15
3.6848574 -0.077717841 0.045229048 33 65
3.5839961 -0.18173133 -0.29769194 38 19
3.5526042 -0.065138593 -0.40073988 60 11
3.6174264 -0.2799589 -0.14364736 39 35
3.6290441 -0.28085282 -0.09373942 29 43
3.509764 -0.27229097 -0.56681359 31 6
3.6614792 -0.17599347 -0.050049726 39 50
3.6718128 -0.17648259 0.00063529983 51 58
3.6714492 -0.17646539 0.051457569 33 66
3.6319139 -0.06841138 -0.15640257 53 33
3.6387441 -0.068532988 -0.1063184 43 41
3.5075912 -0.5998221 -0.44185975 58 9
3.5058939 -0.59953105 -0.36941677 52 13
3.5097861 -0.49585038 -0.47125003 28 8
3.5214233 -0.39553052 -0.51480418 31 7
3.6484096 -0.30156761 -0.043654501 35 51
3.5923269 -0.19094858 -0.24840954 42 23
3.5431688 -0.39796966 -0.38278222 27 12
3.6003959 -0.19200158 -0.19893937 47 27
3.5480685 -0.39914635 -0.33346814 25 16
3.6177549 -0.19354758 -0.14970808 47 34
3.5572357 -0.40080494 -0.28448918 31 20
3.6344666 -0.19442925 -0.10002906 44 42
3.5657973 -0.4017683 -0.23531561 28 24
3.664427 -0.089465447 -0.056384593 32 49
3.5785007 -0.40446278 -0.18621762 23 28
3.6798406 -0.090468623 -0.0057260618 39 57
3.5856335 -0.40590164 -0.13661341 35 36
3.5639699 -0.1925814 -0.34580314 47 15
3.6845636 -0.09057992 0.045229048 31 65
3.5783646 -0.19397473 -0.29727444 41 19
3.557322 -0.077642269 -0.40130588 58 11
3.6164272 -0.29258436 -0.14364736 40 35
3.6280417 -0.29351884 -0.09373942 38 43
3.5137112 -0.28493729 -0.56761646 39 6
3.6608427 -0.18877333 -0.050049726 39 50
3.6711743 -0.18929853 0.00063529983 46 58
3.665818 -0.18902625 0.051386889 40 66
3.6316528 -0.081088707 -0.15640257 49 33
3.6334856 -0.08112774 -0.10617094 32 41
3.505476 -0.61206222 -0.44185975 63 9
3.508678 -0.6126228 -0.36993852 69 13
3.5129378 -0.50880986 -0.4719156 28 8
3.5249355 -0.40838882 -0.51553029 30 7
3.6473343 -0.31430113 -0.043654501 42 51
3.5916386 -0.20348698 -0.24840954 55 23
3.5417578 -0.41033524 -0.38278222 29 12
3.5997038 -0.20456813 -0.19893937 43 27
3.5417087 -0.41095597 -0.33299848 28 16
3.6170573 -0.20617472 -0.14970808 46 34
3.5558147 -0.41321957 -0.28448918 30 20
3.6337657 -0.20711471 -0.10002906 43 42
3.564373 -0.41421282 -0.23531561 30 24
3.659095 -0.10212179 -0.056306928 25 49
3.582027 -0.41752896 -0.18647844 25 28
3.6845005 -0.10344835 -0.0057339165 39 57
3.5632758 -0.2050208 -0.34580314 48 15
3.6792271 -0.10330566 0.045167092 32 65
3.572691 -0.20618102 -0.29685691 50 19
3.5570295 -0.090059169 -0.40130588 40 11
3.620362 -0.30562431 -0.14384714 46 35
3.6269948 -0.30618128 -0.09373942 34 43
3.5126953 -0.29720071 -0.56761646 57 6
3.650177 -0.20100845 -0.049911849 40 50
3.6704912 -0.20211218 0.00063529983 45 58
3.626354 -0.093641266 -0.15618534 43 33
3.6381767 -0.093934335 -0.1063184 33 41
3.4984343 -0.62342227 -0.44123739 56 9
3.5065181 -0.6248666 -0.36993852 76 13
3.5111403 -0.52106917 -0.4719156 28 8
3.5087519 -0.41893336 -0.51335198 34 7
3.5909064 -0.21602288 -0.24840954 46 23
3.5403042 -0.42269576 -0.38278222 32 12
3.5989676 -0.21713221 -0.19893937 34 27
3.5451956 -0.42390662 -0.33346814 29 16
3.6213028 -0.21909738 -0.14991659 45 34
3.5543509 -0.4256292 -0.28448918 41 20
3.6330209 -0.21979767 -0.10002906 31 42
3.5629058 -0.42665231 -0.23531561 34 24
3.6537189 -0.11474198 -0.056229264 27 49
3.5805478 -0.43003002 -0.18647844 28 28
3.6791193 -0.11615634 -0.0057260618 38 57
3.5625386 -0.21745771 -0.34580314 50 15
3.673847 -0.11599525 0.045105133 24 65
3.5769229 -0.21895149 -0.29727444 44 19
3.5566933 -0.10247497 -0.40130588 35 11
3.6192734 -0.31825989 -0.14384714 53 35
3.6308835 -0.31927565 -0.093869433 43 43
3.5067203 -0.30902955 -0.56681359 53 6
3.6494529 -0.21374871 -0.049911849 42 50
3.6697631 -0.21492334 0.00063529983 47 58
3.6210117 -0.10615782 -0.15596811 41 33
3.6328306 -0.10649207 -0.10617094 31 41
3.4962368 -0.63563025 -0.44123739 50 9
3.5043156 -0.63710278 -0.36993852 65 13
3.5093 -0.53332216 -0.4719156 30 8
3.507268 -0.43117869 -0.51335198 45 7
3.5901306 -0.22855619 -0.24840954 44 23
3.5338728 -0.43444535 -0.38224307 38 12
3.5981879 -0.22969364 -0.19893937 34 27
3.5436943 -0.43627906 -0.33346814 31 16
3.6155298 -0.23142132 -0.14970808 44 34
3.5577903 -0.43864271 -0.28488931 40 20
3.627243 -0.23216236 -0.099890321 29 42
3.5613947 -0.43908656 -0.23531561 44 24
3.6532965 -0.12749514 -0.056229264 23 49
3.579025 -0.44252586 -0.18647844 29 28
3.6736941 -0.128828 -0.005718207 30 57
3.5617576 -0.22989194 -0.34580314 32 15
3.6784163 -0.12898877 0.045167092 21 65
3.5711646 -0.23111789 -0.29685691 38 19
3.5513484 -0.11473434 -0.40073988 24 11
3.6131651 -0.33043876 -0.14364736 50 35
3.6247692 -0.33149484 -0.09373942 46 43
3.510535 -0.32171652 -0.56761646 42 6
3.648685 -0.22648637 -0.049911849 31 50
3.6689906 -0.2277319 0.00063529983 44 58
3.6306045 -0.11911415 -0.15640257 33 33
3.6324368 -0.11917236 -0.10617094 30 41
3.4988747 -0.64873725 -0.44185975 46 9
3.5020704 -0.64933127 -0.36993852 58 13
3.5074172 -0.5455687 -0.4719156 29 8
3.5008337 -0.44279867 -0.51262587 53 7
3.5793571 -0.24042554 -0.24771371 33 23
3.532335 -0.44677821 -0.38224307 57 12
3.5923829 -0.24192053 -0.19866115 33 27
3.5421495 -0.44864622 -0.33346814 32 16
3.6196849 -0.24437329 -0.14991659 43 34
3.5562377 -0.45105904 -0.28488931 48 20
3.621424 -0.2444894 -0.099751592 32 42
3.5647898 -0.45214248 -0.2356461 54 24
3.657825 -0.14043343 -0.056306928 25 49
3.5873654 -0.45627487 -0.18700007 34 28
3.6732221 -0.14165081 -0.005718207 27 57
3.5609334 -0.2423234 -0.34580314 33 15
3.6729474 -0.14164048 0.045105133 22 65
3.5653651 -0.24324678 -0.29643941 32 19
3.5558915 -0.12730268 -0.40130588 24 11
3.6119895 -0.34304908 -0.14364736 53 35
3.6235898 -0.34414563 -0.09373942 47 43
3.5093904 -0.33396858 -0.56761646 57 6
3.647872 -0.23922129 -0.049911849 22 50
3.6631839 -0.24021415 0.00063442718 42 58
3.6201825 -0.13143444 -0.15596811 32 33
3.6270041 -0.13167505 -0.10602348 27 41
3.4965885 -0.66094667 -0.44185975 43 9
3.5054913 -0.55780858 -0.4719156 30 8
3.4992666 -0.45501617 -0.51262587 57 7
3.5784962 -0.25291839 -0.24771371 29 23
3.5307539 -0.45910564 -0.38224307 55 12
3.5915167 -0.25445881 -0.19866115 21 27
3.5405619 -0.46100789 -0.33346814 32 16
3.6088428 -0.25630641 -0.14949957 33 34
3.5546412 -0.46346992 -0.28488931 49 20
3.6205482 -0.25712904 -0.099751592 33 42
3.5631895 -0.46458319 -0.2356461 61 24
3.6573126 -0.15320078 -0.056306928 26 49
3.6727054 -0.15447189 -0.005718207 31 57
3.560066 -0.25475192 -0.34580314 32 15
3.6724308 -0.15446062 0.045105133 25 65
3.5644941 -0.25569069 -0.29643941 28 19
3.5554252 -0.13971427 -0.40130588 24 11
3.6057978 -0.35516763 -0.14344756 50 35
3.6273408 -0.35727996 -0.093869433 39 43
3.5082033 -0.34621662 -0.56761646 42 6
3.6420269 -0.2516124 -0.049842913 21 50
3.6673114 -0.25334054 0.00063529983 41 58
3.6197014 -0.14407043 -0.15596811 39 33
3.6265223 -0.14433485 -0.10602348 27 41
3.5084143 -0.57083821 -0.47258124 31 8
3.5025604 -0.46788239 -0.51335198 48 7
3.5825655 -0.26577342 -0.24806163 33 23
3.5291297 -0.47142747 -0.38224307 55 12
