# .PCD v0.7 - Point Cloud Data file format
VERSION 0.7
FIELDS x y z intensity ring
SIZE 4 4 4 4 2
TYPE F F F F U
COUNT 1 1 1 1 1
WIDTH 1200
HEIGHT 1
VIEWPOINT 0 0 0 1 0 0 0
POINTS 1200
DATA ascii
3.7729023 -0.49776947 -0.34238693 39 17
3.7579291 -0.38449097 -0.50253356 48 8
3.7822514 -0.61461967 -0.17834255 29 31
3.794208 -0.61657119 -0.12565716 39 39
3.8465896 -0.51025558 -0.079853207 25 46
3.7301104 -0.60677755 -0.44965011 29 10
3.8621919 -0.51233178 -0.026274525 47 54
3.8671391 -0.51299012 0.027657123 39 62
3.835978 -0.39519399 -0.19285178 45 29
3.8762033 -0.51488477 0.081828043 32 69
3.8482509 -0.39646009 -0.13919137 64 37
3.8264298 -0.05610979 -0.26441354 91 23
3.7789216 -0.27804437 -0.40704307 49 12
3.7941051 -0.27982518 -0.35554281 41 16
3.803611 -0.28119239 -0.30329511 45 20
3.8124423 -0.28184402 -0.25084907 42 24
3.8403664 -0.2852523 -0.19925807 34 28
3.8626506 -0.28758225 -0.14674 51 36
3.8742397 -0.28912345 -0.09339267 37 44
3.9050884 -0.29142129 -0.03927676 43 52
3.8745747 -0.16400254 -0.15363674 36 35
3.8238652 -0.62963575 -0.073048629 23 47
3.7759595 -0.50823575 -0.28972337 41 21
3.8146365 -0.62810957 -0.019385826 39 55
3.7894051 -0.5107246 -0.23762949 48 25
3.7117224 -0.72439218 -0.37982368 30 14
3.8022251 -0.51245797 -0.1852106 36 30
3.7213855 -0.72696245 -0.32726666 28 18
3.8241389 -0.51610047 -0.13282391 49 38
3.7351215 -0.73033673 -0.27618292 29 22
3.8638008 -0.40692624 -0.086674988 43 45
3.7532372 -0.73389751 -0.22440702 25 26
3.7476099 -0.50707185 -0.46986493 53 9
3.8794768 -0.40926403 -0.033054058 42 53
3.7509203 -0.73412186 -0.17126545 25 32
3.7612023 -0.50891685 -0.39446199 54 13
3.8894339 -0.41100222 0.020965666 40 61
3.7711418 -0.51093638 -0.34238693 45 17
3.7565639 -0.39760625 -0.50253356 48 8
3.7850091 -0.62864012 -0.1785772 33 31
3.8018909 -0.63145602 -0.12598696 49 39
3.844785 -0.52367955 -0.079853207 25 46
3.7279696 -0.61979437 -0.44965011 31 10
3.8554263 -0.52513343 -0.02624049 45 54
3.8653247 -0.5264858 0.027657123 43 62
3.8296094 -0.40805185 -0.19259968 42 29
3.8418748 -0.4093605 -0.13900991 42 37
3.8311973 -0.069553226 -0.26476142 91 23
3.7779279 -0.29123357 -0.40704307 34 12
3.8444941 -0.070456527 -0.21229474 95 27
3.7931051 -0.29306737 -0.35554281 34 16
3.8026063 -0.29446775 -0.30329511 45 20
3.8114352 -0.29515019 -0.25084907 41 24
3.8393471 -0.29865593 -0.19925807 42 28
3.8616233 -0.30106366 -0.14674 43 36
3.8732069 -0.3026453 -0.09339267 17 44
3.8990626 -0.30466205 -0.039226148 42 52
3.8739784 -0.17752634 -0.15363674 43 35
3.8216443 -0.64297968 -0.073048629 29 47
3.7741625 -0.52141321 -0.28972337 45 21
3.7826564 -0.52326316 -0.23731641 46 25
3.7091713 -0.73734409 -0.37982368 31 14
3.8004134 -0.52572709 -0.1852106 47 30
3.7237091 -0.74092484 -0.3277007 28 18
3.8173645 -0.52875841 -0.13265029 43 38
3.7276595 -0.74239141 -0.2758176 32 22
3.8623571 -0.42041096 -0.086674988 25 45
3.7457583 -0.74601448 -0.22411136 29 26
3.7409034 -0.51946598 -0.4692426 29 9
3.8780246 -0.42280343 -0.033054058 40 53
3.7483346 -0.74721056 -0.17126545 28 32
3.7544777 -0.52135682 -0.39394018 51 13
3.8879757 -0.4245764 0.020965666 40 61
3.7693353 -0.52409697 -0.34238693 46 17
3.7551532 -0.41071665 -0.50253356 41 8
3.7827919 -0.64184844 -0.1785772 38 31
3.7996635 -0.64472324 -0.12598696 50 39
3.8429337 -0.5370971 -0.079853207 40 46
3.7257836 -0.63280356 -0.44965011 51 10
3.8585212 -0.5392822 -0.026274525 41 54
3.8634634 -0.53997505 0.027657123 46 62
3.828162 -0.42141718 -0.19259968 25 29
3.8404226 -0.42276862 -0.13900991 43 37
3.8309312 -0.082926176 -0.26476142 91 23
3.7768886 -0.30441922 -0.40704307 37 12
3.854207 -0.084086731 -0.21285123 90 27
3.7870972 -0.30590588 -0.35507312 14 16
3.7965875 -0.30733806 -0.30289495 37 20
3.8103819 -0.30845276 -0.25084907 45 24
3.8382814 -0.31205592 -0.19925807 14 28
3.8605487 -0.31454143 -0.14674 39 36
3.8721266 -0.31616345 -0.09339267 14 44
3.8217955 -0.086738899 -0.31731543 53 19
3.892992 -0.31786424 -0.039175533 38 52
3.9140284 -0.30789128 0.014257562 36 60
3.8733351 -0.19104797 -0.15363674 37 35
3.9000652 -0.19235529 -0.10063011 58 43
3.8045976 -0.65376574 -0.072763279 30 47
3.7723196 -0.53458434 -0.28972337 49 21
3.7808068 -0.53646392 -0.23731641 55 25
3.7114494 -0.75127882 -0.38032812 38 14
3.7936108 -0.53828621 -0.18496722 39 30
3.7211001 -0.75391853 -0.3277007 31 18
3.8204424 -0.54278517 -0.13282391 44 38
3.7299316 -0.7563948 -0.27618292 37 22
3.8558989 -0.43333161 -0.086562432 14 45
3.7480221 -0.76008195 -0.22440702 31 26
3.7390673 -0.53252095 -0.4692426 46 9
3.8715568 -0.43577772 -0.033011295 40 53
3.7408094 -0.75929171 -0.17103951 29 32
3.7477124 -0.53375596 -0.39341843 47 13
3.8815012 -0.43758458 0.020938613 37 61
3.7625537 -0.53654617 -0.34193465 40 17
3.7536964 -0.42382208 -0.50253356 37 8
3.7805283 -0.65504891 -0.1785772 51 31
3.7973897 -0.65798265 -0.12598696 54 39
3.8311391 -0.54908568 -0.079645522 28 46
3.723552 -0.64580518 -0.44965011 53 10
3.8516662 -0.55203635 -0.02624049 39 54
3.8615551 -0.55345786 0.027657123 47 62
3.8266675 -0.43477741 -0.19259968 39 29
3.8389235 -0.43617165 -0.13900991 42 37
3.8206456 -0.096054383 -0.26406559 53 23
3.7708495 -0.31718525 -0.40650395 34 12
3.8389182 -0.097171389 -0.21201652 50 27
3.7860067 -0.31912345 -0.35507312 17 16
3.7954915 -0.32058877 -0.30289495 14 20
3.8092818 -0.32175162 -0.25084907 29 24
3.8371687 -0.32545212 -0.19925807 17 28
3.8544483 -0.32759288 -0.14654893 36 36
3.8759806 -0.33010128 -0.093513958 14 44
3.8264506 -0.10020587 -0.31773293 95 19
3.8918591 -0.33145139 -0.039175533 39 52
3.9129298 -0.32155192 0.014257562 53 60
3.867655 -0.2043058 -0.15343694 37 35
3.8843956 -0.20518312 -0.10024007 63 43
3.8170624 -0.66964388 -0.073048629 36 47
3.7654972 -0.54703009 -0.28934067 40 21
3.7789111 -0.54965812 -0.23731641 42 25
3.7088046 -0.76422966 -0.38032812 51 14
3.7917087 -0.55152512 -0.18496722 42 30
3.718446 -0.76690298 -0.3277007 46 18
3.8185246 -0.55611771 -0.13282391 42 38
3.7272687 -0.76941007 -0.27618292 45 22
3.8543627 -0.44678861 -0.086562432 24 45
3.7453463 -0.77316034 -0.22440702 35 26
3.7371857 -0.54556948 -0.4692426 17 9
3.8700118 -0.44928929 -0.033011295 32 53
3.7332456 -0.77132958 -0.17081356 33 32
3.7458262 -0.54683465 -0.39341843 36 13
3.8849168 -0.45170903 0.020965666 17 61
3.760658 -0.54967666 -0.34193465 42 17
3.7571168 -0.43749627 -0.50319916 25 8
3.778219 -0.66824144 -0.1785772 49 31
3.7950702 -0.67123401 -0.12598696 51 39
3.8341448 -0.56318402 -0.079749368 23 46
3.7212751 -0.65879887 -0.44965011 51 10
3.8497157 -0.56547779 -0.02624049 39 54
3.8546529 -0.56620508 0.027621344 42 62
3.8251264 -0.44813231 -0.19259968 14 29
3.8373775 -0.44956931 -0.13900991 42 37
3.825273 -0.10952961 -0.26441354 51 23
3.7697194 -0.33034605 -0.40650395 31 12
3.8485363 -0.11085165 -0.21257299 36 27
3.7848694 -0.33233714 -0.35507312 17 16
3.7943492 -0.33383554 -0.30289495 21 20
3.8131056 -0.3354831 -0.25117958 17 24
3.8360093 -0.33884439 -0.19925807 17 28
3.8532815 -0.34104544 -0.14654893 38 36
3.8748045 -0.34362897 -0.093513958 17 44
3.8161163 -0.1132734 -0.3168979 92 19
3.8906782 -0.34503448 -0.039175533 23 52
3.9068019 -0.33478245 0.014239237 50 60
3.8719068 -0.21808407 -0.15363674 37 35
3.8936365 -0.21929896 -0.1005001 38 43
3.7999411 -0.68031061 -0.072763279 42 47
3.7635648 -0.56017077 -0.28934067 34 21
3.7769697 -0.56284565 -0.23731641 41 25
3.7012465 -0.77614534 -0.37982368 53 14
3.7897606 -0.56475729 -0.18496722 23 30
3.7157464 -0.77987808 -0.3277007 51 18
3.8116183 -0.56870395 -0.13265029 35 38
3.719681 -0.7813859 -0.2758176 54 22
3.847816 -0.45964649 -0.086449862 25 45
3.7328572 -0.78416741 -0.22381569 46 26
3.7352583 -0.55861139 -0.4692426 23 9
3.8684196 -0.46279544 -0.033011295 38 53
3.7438946 -0.55990666 -0.39341843 27 13
3.8783519 -0.46467167 0.020938613 20 61
3.7587161 -0.56280047 -0.34193465 39 17
3.7506461 -0.45001727 -0.50253356 25 8
3.7807777 -0.68231636 -0.17881188 44 31
3.7877862 -0.68358624 -0.12582205 51 39
3.8222697 -0.57507271 -0.079541691 13 46
3.7140679 -0.67089862 -0.44905373 43 10
3.8427744 -0.57816643 -0.026206456 38 54
3.8526528 -0.5796569 0.027621344 39 62
3.8235388 -0.46148175 -0.19259968 17 29
3.8308241 -0.46236208 -0.13882843 36 37
3.7457068 -0.34142449 -0.54675251 58 7
3.8248675 -0.12288164 -0.26441354 46 23
3.7685435 -0.34350279 -0.40650395 31 12
3.8431358 -0.12412719 -0.21229474 45 27
3.7886436 -0.34599879 -0.35554281 20 16
3.8606851 -0.12535627 -0.15971641 96 34
3.7981243 -0.34753171 -0.30329511 25 20
3.8119116 -0.3487913 -0.25117958 25 24
3.8348029 -0.35223249 -0.19925807 20 28
3.8520677 -0.35449383 -0.14654893 34 36
3.8735814 -0.35715246 -0.093513958 20 44
3.8206778 -0.12675516 -0.31731543 88 19
3.8844717 -0.35815504 -0.039124917 31 52
3.9056096 -0.34841767 0.014239237 46 60
3.8711219 -0.23159821 -0.15363674 41 35
3.8878579 -0.23259252 -0.10037009 51 43
3.7615864 -0.57330465 -0.28934067 30 21
3.7799144 -0.57678115 -0.23762949 25 25
3.6985147 -0.78906035 -0.37982368 52 14
3.782829 -0.57722718 -0.18472384 24 30
3.7081316 -0.79179883 -0.32726666 49 18
3.8096097 -0.5820055 -0.13265029 41 38
3.7169309 -0.79436535 -0.2758176 51 22
3.8461881 -0.47307506 -0.086449862 20 45
3.7300973 -0.79719275 -0.22381569 47 26
3.7381892 -0.57239944 -0.46986493 31 9
3.8667808 -0.47629592 -0.033011295 33 53
3.7468324 -0.57372665 -0.39394018 28 13
3.8767064 -0.47820678 0.020938613 23 61
3.751807 -0.57516074 -0.34148234 23 17
3.7539709 -0.46371499 -0.50319916 23 8
3.7685504 -0.69369429 -0.17834255 35 31
3.7853773 -0.69680387 -0.12582205 49 39
3.8251791 -0.58917439 -0.079645522 14 46
3.7117035 -0.68385905 -0.44905373 32 10
3.8407331 -0.5915767 -0.026206456 20 54
3.8169494 -0.47420922 -0.19234759 20 29
3.8291869 -0.47573134 -0.13882843 34 37
3.7444918 -0.35449737 -0.54675251 41 7
3.9125562 -0.25462538 -0.046785582 40 51
3.8244154 -0.13623217 -0.26441354 46 23
3.7673211 -0.35665539 -0.40650395 33 12
3.8476684 -0.13771658 -0.21257299 36 27
3.7874126 -0.35922152 -0.35554281 23 16
3.8652165 -0.1390079 -0.15992491 95 34
3.7968881 -0.36078754 -0.30329511 29 20
3.8057036 -0.36162397 -0.25084907 38 24
3.8285792 -0.36514288 -0.19899726 23 28
3.8508067 -0.36793789 -0.14654893 45 36
3.8104665 -0.13907458 -0.36966842 95 15
3.8673353 -0.37019596 -0.09339267 23 44
3.8102534 -0.13973284 -0.31648037 38 19
3.8782208 -0.37123641 -0.039074302 36 52
3.8993907 -0.3615877 0.01422091 43 60
3.9137504 -0.36291727 0.068656817 39 68
3.8702898 -0.24510954 -0.15363674 43 35
3.8820341 -0.24584843 -0.10024007 54 43
3.764488 -0.58720201 -0.28972337 23 21
3.7729483 -0.58919996 -0.23731641 20 25
3.6957381 -0.80196583 -0.37982368 58 14
3.7758577 -0.58965558 -0.18448047 17 30
3.7053449 -0.80473781 -0.32726666 45 18
3.8026183 -0.59452611 -0.13247666 39 38
3.7141352 -0.80733502 -0.2758176 51 22
3.8445134 -0.48649791 -0.086449862 28 45
3.7272918 -0.81020838 -0.22381569 48 26
3.7312677 -0.5846746 -0.4692426 29 9
3.8601346 -0.4891614 -0.032968536 31 53
3.7398946 -0.58603013 -0.39341843 29 13
3.8750134 -0.49173611 0.020938613 29 61
3.7497764 -0.58825344 -0.34148234 23 17
3.7523293 -0.47681597 -0.50319916 25 8
3.7710137 -0.70776951 -0.1785772 20 31
3.7829218 -0.71001303 -0.12582205 42 39
3.8230991 -0.60252315 -0.079645522 20 46
3.7092936 -0.69681108 -0.44905373 23 10
3.8386445 -0.60497975 -0.026206456 20 54
3.8103175 -0.48689637 -0.1920955 23 29
3.827503 -0.48909479 -0.13882843 46 37
3.7481549 -0.36804867 -0.54747868 45 7
3.9116435 -0.26828119 -0.046785582 31 51
3.8239164 -0.14958104 -0.26441354 44 23
3.7710004 -0.37028867 -0.40704307 52 12
3.8371871 -0.15076157 -0.21201652 34 27
3.7910898 -0.3729265 -0.35601249 29 16
3.8547237 -0.15211214 -0.1595079 95 34
3.7956057 -0.37403893 -0.30329511 42 20
3.8044181 -0.37490612 -0.25084907 46 24
3.8272812 -0.3785049 -0.19899726 25 28
3.8494987 -0.38137749 -0.14654893 52 36
3.7850962 -0.15139791 -0.36723319 63 15
3.866019 -0.38369322 -0.09339267 28 44
3.8097422 -0.15303224 -0.31648037 35 19
3.8818765 -0.38526481 -0.039124917 47 52
3.8931279 -0.37471858 0.014202585 43 60
3.9174359 -0.37705487 0.06874495 46 68
3.869411 -0.25861788 -0.15363674 46 35
3.8811524 -0.25939775 -0.10024007 46 43
3.7574925 -0.59955138 -0.28934067 28 21
3.7659411 -0.60157716 -0.23700333 23 25
3.6977725 -0.81593812 -0.38032812 35 14
3.7787073 -0.60362196 -0.18472384 23 30
3.7025132 -0.81766689 -0.32726666 38 18
3.8005195 -0.60779601 -0.13247666 34 38
3.7064264 -0.81921387 -0.27545229 40 22
3.8427918 -0.4999148 -0.086449862 25 45
3.7195683 -0.82213223 -0.22352004 43 26
3.734102 -0.59848273 -0.46986493 28 9
3.8584037 -0.5026328 -0.032968536 45 53
3.7378261 -0.59908122 -0.39341843 27 13
3.8732734 -0.50525939 0.020938613 40 61
3.7477 -0.6013391 -0.34148234 25 17
3.7506421 -0.48991111 -0.50319916 31 8
3.7636154 -0.71998662 -0.17834255 23 31
3.7755129 -0.7222712 -0.12565716 41 39
3.8209727 -0.61586457 -0.079645522 17 46
3.7068388 -0.70975477 -0.44905373 25 10
3.8315735 -0.61757779 -0.026172422 23 54
3.8135457 -0.50084484 -0.19234759 28 29
3.8257725 -0.50245231 -0.13882843 61 37
3.7468476 -0.38112989 -0.54747868 50 7
3.9056962 -0.28157625 -0.04672537 64 51
3.8233712 -0.1629281 -0.26441354 43 23
3.7746305 -0.38395199 -0.40758219 52 12
3.8366377 -0.16415495 -0.21201652 35 27
3.7897651 -0.38615763 -0.35601249 37 16
3.864152 -0.16598859 -0.15992491 47 34
3.794277 -0.3872858 -0.30329511 45 20
3.8030865 -0.38818371 -0.25084907 47 24
3.8259368 -0.3918623 -0.19899726 30 28
3.8481443 -0.39481241 -0.14654893 53 36
3.8243182 -0.1663112 -0.37112957 33 15
3.8596842 -0.3966755 -0.093271382 39 44
3.8091853 -0.1663298 -0.31648037 37 19
3.8805082 -0.39881274 -0.039124917 44 52
3.8917964 -0.38830584 0.014202585 43 60
3.9061468 -0.38973567 0.068568684 46 68
3.8734682 -0.27247155 -0.15383652 45 35
3.8802233 -0.27294391 -0.10024007 43 43
3.7553766 -0.61266381 -0.28934067 32 21
3.768743 -0.61552554 -0.23731641 28 25
3.6851964 -0.82665354 -0.37931928 35 14
3.7864342 -0.61842263 -0.1852106 28 30
3.6996365 -0.83058614 -0.32726666 25 18
3.8033061 -0.62186706 -0.13265029 52 38
3.7035444 -0.83214664 -0.27545229 49 22
3.8410234 -0.51332557 -0.086449862 29 45
3.736886 -0.6123178 -0.4704873 28 9
3.8566258 -0.51609802 -0.032968536 50 53
3.7406192 -0.61293119 -0.39394018 32 13
3.8665307 -0.51811188 0.020911561 37 61
3.7455785 -0.61441731 -0.34148234 23 17
3.7439976 -0.50234067 -0.50253356 49 8
3.7610793 -0.73311973 -0.17834255 25 31
3.8187997 -0.62919855 -0.079645522 20 46
3.7043386 -0.72268969 -0.44905373 28 10
3.8293946 -0.63094872 -0.026172422 37 54
3.811774 -0.51415348 -0.19234759 35 29
3.8239951 -0.51580369 -0.13882843 43 37
3.7454944 -0.39420652 -0.54747868 52 7
3.9046896 -0.29520798 -0.04672537 42 51
3.8177962 -0.17604688 -0.26406559 35 23
3.7683234 -0.39660597 -0.40704307 54 12
3.8360412 -0.17754632 -0.21201652 33 27
3.7784929 -0.3983416 -0.35507312 48 16
3.8635488 -0.17947599 -0.15992491 37 34
3.787945 -0.40000525 -0.30289495 41 20
3.8803847 -0.1802464 -0.10682715 96 42
3.801708 -0.40145662 -0.25084907 49 24
3.8245454 -0.40521491 -0.19899726 42 28
3.8417745 -0.40771598 -0.14635786 51 36
3.7889178 -0.17804903 -0.36772025 37 15
3.8582759 -0.41014588 -0.093271382 43 44
3.8036039 -0.17939408 -0.31606284 36 19
3.8790925 -0.41235581 -0.039124917 43 52
3.8904171 -0.4018884 0.014202585 43 60
3.9097352 -0.40388131 0.068656817 45 68
3.867511 -0.28562492 -0.15363674 47 35
3.9133046 -0.4049398 0.1231823 10 72
3.8842316 -0.28685281 -0.10037009 25 43
3.7532153 -0.62576878 -0.28934067 36 21
3.7665713 -0.62867713 -0.23731641 34 25
3.6822884 -0.83951223 -0.37931928 33 14
3.7793272 -0.63081169 -0.18496722 29 30
3.6967146 -0.84349519 -0.32726666 28 18
3.8011124 -0.63513929 -0.13265029 52 38
3.7054775 -0.84618437 -0.2758176 43 22
3.8392084 -0.52673012 -0.086449862 39 45
3.7298329 -0.62453687 -0.46986493 44 9
3.8548007 -0.52955705 -0.032968536 49 53
3.7384565 -0.62598467 -0.39394018 42 13
3.8646984 -0.53160542 0.020911561 41 61
3.7434106 -0.62748808 -0.34148234 38 17
3.7422211 -0.51540655 -0.50253356 56 8
3.7535989 -0.74526775 -0.17810789 28 31
3.8165801 -0.64252478 -0.079645522 25 46
3.7017934 -0.73561585 -0.44905373 29 10
3.8050098 -0.52677047 -0.1920955 47 29
3.8221714 -0.52914876 -0.13882843 64 37
3.7440953 -0.40727833 -0.54747868 52 7
3.9036353 -0.30883607 -0.04672537 39 51
3.8221405 -0.18961607 -0.26441354 39 23
3.766916 -0.40975747 -0.40704307 45 12
3.9138236 -0.31032526 0.007468259 29 59
3.840384 -0.19118026 -0.21229474 19 27
3.7770793 -0.41152859 -0.35507312 41 16
3.8628988 -0.1929612 -0.15992491 34 34
3.7865257 -0.41322517 -0.30289495 44 20
3.8947082 -0.19452807 -0.10724337 95 42
3.8002837 -0.41472462 -0.25084907 50 24
3.8231077 -0.41856262 -0.19899726 33 28
3.8353608 -0.42057982 -0.1461668 53 36
3.7833033 -0.19102632 -0.36723319 36 15
3.8568208 -0.42361128 -0.093271382 40 44
3.8029544 -0.19267005 -0.31606284 35 19
3.8726592 -0.42534867 -0.039074302 40 52
3.8889904 -0.41546604 0.014202585 42 60
3.9033306 -0.416996 0.068568684 31 68
3.8664904 -0.29912332 -0.15363674 41 35
3.9118671 -0.41859734 0.1231823 44 72
3.8832066 -0.30040956 -0.10037009 28 43
3.751008 -0.63886613 -0.28934067 42 21
3.7643538 -0.64182109 -0.23731641 41 25
3.6841803 -0.85348815 -0.37982368 34 14
3.777102 -0.64400017 -0.18496722 33 30
3.6985989 -0.85752374 -0.3277007 31 18
3.798872 -0.64840376 -0.13265029 44 38
3.687932 -0.85571802 -0.27472165 30 22
3.832396 -0.5394308 -0.086337298 43 45
3.7227407 -0.63671422 -0.4692426 52 9
3.8529286 -0.54300958 -0.032968536 42 53
3.736249 -0.63903052 -0.39394018 54 13
3.8628192 -0.54509252 0.020911561 44 61
3.7411978 -0.64055121 -0.34148234 44 17
3.7354927 -0.52777231 -0.50186795 54 8
3.7509749 -0.75836575 -0.17810789 30 31
3.8192406 -0.65669245 -0.079749368 31 46
3.6992033 -0.74853301 -0.44905373 31 10
3.803148 -0.5400492 -0.1920955 42 29
3.8153539 -0.54178423 -0.13864696 64 37
3.7475669 -0.42089659 -0.54820472 50 7
3.8975508 -0.32205075 -0.046665158 28 51
3.8214552 -0.20295668 -0.26441354 21 23
3.7704029 -0.42345804 -0.40758219 35 12
3.9177001 -0.32439575 0.0074778586 34 59
3.8396935 -0.20458451 -0.21229474 17 27
3.7805665 -0.42526627 -0.35554281 30 16
3.8572133 -0.20618086 -0.15971641 31 34
3.7850602 -0.42644009 -0.30289495 43 20
3.8690498 -0.20680533 -0.10654968 96 42
3.7938552 -0.42742968 -0.25051859 41 24
3.8216233 -0.43190521 -0.19899726 41 28
3.8388345 -0.43452644 -0.14635786 44 36
3.7826135 -0.20423137 -0.36723319 36 15
3.8553185 -0.4370715 -0.093271382 20 44
3.802259 -0.20594366 -0.31606284 29 19
3.8761189 -0.43942672 -0.039124917 40 52
3.8875167 -0.42903858 0.014202585 41 60
3.9018514 -0.43061861 0.068568684 47 68
3.865423 -0.31261808 -0.15363674 36 35
3.9103823 -0.43224975 0.1231823 47 72
3.87217 -0.31316093 -0.10011006 23 43
3.7487552 -0.65195566 -0.28934067 45 21
3.7620904 -0.65495718 -0.23731641 45 25
3.6811786 -0.86634314 -0.37982368 37 14
3.7748311 -0.65718079 -0.18496722 44 30
3.6955829 -0.8704291 -0.3277007 29 18
3.7916632 -0.66080034 -0.13247666 43 38
3.6946273 -0.87088376 -0.27545229 25 22
3.8304896 -0.55280507 -0.086337298 31 45
3.7204952 -0.64970511 -0.4692426 30 9
3.8460612 -0.55573982 -0.032925773 40 53
3.7339954 -0.65206856 -0.39394018 51 13
3.8559446 -0.55785638 0.020884508 42 61
3.738939 -0.65360653 -0.34148234 46 17
3.7287235 -0.5400973 -0.50120234 39 8
3.7483046 -0.77145445 -0.17810789 31 31
3.8120015 -0.66915369 -0.079645522 38 46
3.6965678 -0.76144111 -0.44905373 50 10
3.796298 -0.5526014 -0.19184341 28 29
3.8134396 -0.55509901 -0.13864696 41 37
3.7460749 -0.43397552 -0.54820472 54 7
3.8964026 -0.33565381 -0.046665158 28 51
3.8157432 -0.21601638 -0.26406559 25 23
3.7639635 -0.43604529 -0.40704307 32 12
3.9065804 -0.33721322 0.0074586598 34 59
3.8389559 -0.21798629 -0.21229474 24 27
3.7741146 -0.43788734 -0.35507312 17 16
3.8614576 -0.21992439 -0.15992491 37 34
3.7835486 -0.43964985 -0.30289495 38 20
3.8882649 -0.22143254 -0.10710462 50 42
3.79234 -0.44067013 -0.25051859 43 24
3.8200924 -0.44524252 -0.19899726 17 28
3.8372941 -0.44792384 -0.14635786 39 36
3.7868457 -0.21771601 -0.36772025 40 15
3.8537693 -0.45052642 -0.093271382 14 44
3.8015165 -0.21921475 -0.31606284 28 19
3.8695953 -0.45237434 -0.039074302 32 52
3.8859956 -0.44260594 0.014202585 37 60
3.8953574 -0.44367096 0.068480551 37 68
3.8543508 -0.32527289 -0.15323715 32 35
3.9138153 -0.44646266 0.12334023 50 72
3.876034 -0.32709369 -0.10024007 23 43
3.7464566 -0.66503727 -0.28934067 49 21
3.7597816 -0.6680854 -0.23731641 54 25
3.6781323 -0.87918758 -0.37982368 43 14
3.7725141 -0.67035341 -0.18496722 45 30
3.6876791 -0.88216019 -0.32726666 29 18
3.7893333 -0.67403173 -0.13247666 43 38
3.6818683 -0.88144356 -0.27472165 37 22
3.8334818 -0.56690454 -0.086449862 13 45
3.7182047 -0.66268808 -0.4692426 40 9
3.8440981 -0.56916171 -0.032925773 39 53
3.7268014 -0.66422403 -0.39341843 47 13
3.8539741 -0.57131273 0.020884508 41 61
3.7366345 -0.66665387 -0.34148234 45 17
3.7268157 -0.55310965 -0.50120234 38 8
3.8145628 -0.6833396 -0.079749368 41 46
3.6938872 -0.77433991 -0.44905373 54 10
3.7943459 -0.56584954 -0.19184341 40 29
3.8114786 -0.568407 -0.13864696 41 37
3.7347131 -0.44587761 -0.54675251 49 7
3.8952074 -0.34925273 -0.046665158 29 51
3.8199453 -0.22963029 -0.26441354 30 23
3.7624187 -0.44918132 -0.40704307 32 12
3.9103596 -0.351293 0.007468259 34 59
3.8381715 -0.23138542 -0.21229474 35 27
3.772563 -0.45105878 -0.35507312 17 16
3.8606665 -0.23340207 -0.15992491 40 34
3.781991 -0.45285422 -0.30289495 17 20
3.8824794 -0.23470563 -0.10696589 50 42
3.7907786 -0.45390519 -0.25051859 32 24
3.8135576 -0.45797977 -0.19873646 20 28
3.8307464 -0.46071979 -0.1461668 37 36
3.7860627 -0.23093325 -0.36772025 40 15
3.8472102 -0.46337879 -0.093150094 20 44
3.8007283 -0.23248319 -0.31606284 34 19
3.8679926 -0.46587899 -0.039074302 30 52
3.8844268 -0.45616791 0.014202585 29 60
3.893785 -0.45726559 0.068480551 28 68
3.8531921 -0.33872512 -0.15323715 30 35
3.9023063 -0.45895559 0.12302437 45 72
3.8748689 -0.34062159 -0.10024007 28 43
3.8756692 -0.11336 -0.16704664 97 33
3.7392073 -0.67722028 -0.28895792 41 21
3.7525167 -0.68031317 -0.23700333 46 25
3.6750407 -0.89202136 -0.37982368 52 14
3.7652373 -0.68262488 -0.18472384 40 30
3.6845775 -0.89502716 -0.32726666 42 18
3.7869575 -0.68725479 -0.13247666 44 38
3.8215952 -0.57878405 -0.086224735 24 45
3.7158687 -0.67566299 -0.4692426 29 9
3.8371449 -0.58182639 -0.032883015 23 53
3.7244601 -0.67722893 -0.39341843 38 13
3.847013 -0.58401096 0.020857455 38 61
3.7342849 -0.6796931 -0.34148234 47 17
3.7248621 -0.56611532 -0.50120234 17 8
3.6911616 -0.78722924 -0.44905373 52 10
3.7923477 -0.57909077 -0.19184341 14 29
3.8094714 -0.58170801 -0.13864696 40 37
3.7380438 -0.45951438 -0.54747868 37 7
3.8889861 -0.3623856 -0.046604943 27 51
3.8141422 -0.24264981 -0.26406559 38 23
3.7608275 -0.46231189 -0.40704307 28 12
3.9091096 -0.36494052 0.007468259 43 59
3.8323584 -0.24446744 -0.21201652 36 27
3.7759061 -0.46483222 -0.35554281 23 16
3.9185841 -0.36582112 0.061939131 46 67
3.864814 -0.24719232 -0.16013342 45 34
3.7803872 -0.46605307 -0.30289495 24 20
3.8766482 -0.247941 -0.10682715 46 42
3.7842193 -0.46652496 -0.25018808 20 24
3.8119359 -0.4712888 -0.19873646 17 28
3.8291149 -0.47408882 -0.1461668 36 36
3.7951655 -0.24478123 -0.36869434 40 15
3.8505301 -0.47741961 -0.093271382 17 44
3.8048663 -0.24606687 -0.31648037 38 19
3.8663428 -0.47937799 -0.039074302 28 52
3.8778467 -0.46912447 0.014184259 25 60
3.8872018 -0.47025487 0.068392411 17 68
3.8619373 -0.35307881 -0.15363674 42 35
3.8957188 -0.47197396 0.12286644 40 72
3.873656 -0.35414532 -0.10024007 23 43
3.8981922 -0.24179061 -0.053358801 98 50
3.8752499 -0.12688792 -0.16704664 96 33
3.7368205 -0.69026846 -0.28895792 35 21
3.7501192 -0.69340777 -0.23700333 35 25
3.6719048 -0.90484416 -0.37982368 67 14
3.7677422 -0.69667399 -0.18496722 17 30
3.6814303 -0.90788335 -0.32726666 31 18
3.7796226 -0.69955814 -0.13230304 43 38
3.824491 -0.59288681 -0.086337298 17 45
3.7134879 -0.68862969 -0.4692426 25 9
3.8350906 -0.59521699 -0.032883015 32 53
3.7171845 -0.68931687 -0.39289665 30 13
3.726994 -0.69181317 -0.34103006 23 17
3.7228632 -0.57911408 -0.50120234 23 8
3.6835408 -0.79905313 -0.44845739 44 10
3.7903032 -0.59232509 -0.19184341 17 29
3.8024809 -0.59422988 -0.13846548 34 37
3.7364173 -0.47255978 -0.54747868 35 7
3.8827209 -0.37547931 -0.046544731 42 51
3.813272 -0.25596216 -0.26406559 46 23
3.759191 -0.47543681 -0.40704307 28 12
3.9028349 -0.37810358 0.0074586598 43 59
3.8314815 -0.25784338 -0.21201652 46 27
3.7693219 -0.47738504 -0.35507312 20 16
3.9172831 -0.37949732 0.061939131 62 67
3.8639278 -0.26068151 -0.16013342 49 34
3.7787375 -0.47924623 -0.30289495 25 20
3.8707724 -0.2611385 -0.10668842 46 42
3.7875178 -0.48035854 -0.25051859 28 24
3.8053138 -0.48396277 -0.19847564 20 28
3.8274364 -0.487452 -0.1461668 35 36
3.7942879 -0.25802734 -0.36869434 41 15
3.8438818 -0.49022588 -0.093150094 20 44
3.8089554 -0.25968227 -0.3168979 43 19
3.8596866 -0.4922393 -0.03902369 29 52
3.8761857 -0.48265782 0.014184259 30 60
3.8904979 -0.48443797 0.068480551 20 68
3.8557072 -0.36608717 -0.15343694 44 35
3.8723962 -0.36766475 -0.10024007 34 43
3.8923354 -0.25507286 -0.053289864 41 50
3.869791 -0.14023821 -0.16682941 49 33
3.7343881 -0.70330817 -0.28895792 32 21
3.7525792 -0.70742035 -0.23731641 35 25
3.6638994 -0.91644412 -0.37931928 58 14
3.76038 -0.70889431 -0.18472384 20 30
3.6782391 -0.92072839 -0.32726666 32 18
3.7771575 -0.71274722 -0.13230304 43 38
3.8223979 -0.60623318 -0.086337298 26 45
3.7110612 -0.70158798 -0.4692426 28 9
3.8329895 -0.60860032 -0.032883015 29 53
3.7147555 -0.70228803 -0.39289665 29 13
3.7245564 -0.70481867 -0.34103006 23 17
3.725713 -0.59288526 -0.50186795 23 8
3.6855762 -0.81297898 -0.44905373 32 10
3.7783511 -0.60397434 -0.19133921 20 29
3.8003836 -0.60749942 -0.13846548 35 37
3.7347448 -0.48559946 -0.54747868 43 7
3.8863616 -0.38952681 -0.046604943 42 51
3.8123553 -0.2692714 -0.26406559 47 23
3.7575085 -0.48855594 -0.40704307 31 12
3.9014912 -0.39172471 0.0074586598 44 59
3.8305583 -0.27121615 -0.21201652 49 27
3.7725687 -0.49118149 -0.35554281 23 16
3.9159343 -0.39316887 0.061939131 35 67
3.8629942 -0.27416757 -0.16013342 45 34
3.7770414 -0.49243361 -0.30289495 31 20
3.869837 -0.27464846 -0.10668842 44 42
3.7858176 -0.49357656 -0.25051859 31 24
3.8085527 -0.4978894 -0.19873646 23 28
3.8257117 -0.50080931 -0.1461668 49 36
3.7884007 -0.27091885 -0.36820731 43 15
3.8421469 -0.50364053 -0.093150094 25 44
3.8080256 -0.2729764 -0.3168979 45 19
3.8579447 -0.50570911 -0.03902369 35 52
3.8744769 -0.4961853 0.014184259 43 60
3.8887827 -0.49801537 0.068480551 23 68
3.8494337 -0.37905633 -0.15323715 50 35
3.8710895 -0.38117969 -0.10024007 35 43
3.896409 -0.26899904 -0.053358801 45 50
3.9117413 -0.27004695 0.0006780604 14 58
3.869278 -0.15374544 -0.16682941 51 33
3.7319105 -0.71633929 -0.28895792 31 21
3.754987 -0.72145861 -0.23762949 26 25
3.6606781 -0.92922795 -0.37931928 59 14
3.7578826 -0.72201622 -0.18472384 20 30
3.670176 -0.93233097 -0.32683262 43 18
3.7697396 -0.72498178 -0.13212942 40 38
3.8202586 -0.61957216 -0.086337298 23 45
3.7037184 -0.71359706 -0.46862027 39 9
3.8259068 -0.62117428 -0.032840252 31 53
3.7122815 -0.71525073 -0.39289665 31 13
3.7220736 -0.71781546 -0.34103006 28 17
3.7236209 -0.60588682 -0.50186795 29 8
3.6875589 -0.82692885 -0.44965011 28 10
3.7811475 -0.6179657 -0.19159132 23 29
3.7933087 -0.61995494 -0.13828401 47 37
3.7281234 -0.49797893 -0.54675251 51 7
3.8899512 -0.40360427 -0.046665158 42 51
3.8113921 -0.28257737 -0.26406559 47 23
3.7607076 -0.50232655 -0.40758219 50 12
3.8951266 -0.40482622 0.0074490602 43 59
3.8295882 -0.28458565 -0.21201652 33 27
3.7708313 -0.50434726 -0.35554281 30 16
3.9095657 -0.4063209 0.061859723 54 67
3.8620133 -0.28765029 -0.16013342 45 34
3.7703595 -0.50495404 -0.30249485 40 20
3.8738391 -0.28852284 -0.10682715 37 42
3.7791266 -0.50612694 -0.25018808 46 24
3.8067915 -0.5111807 -0.19873646 29 28
3.8239405 -0.51416051 -0.1461668 51 36
3.7923944 -0.28450999 -0.36869434 44 15
3.8403656 -0.51704907 -0.093150094 30 44
3.8020811 -0.28589711 -0.31648037 36 19
3.8561559 -0.51917279 -0.03902369 48 52
3.8727217 -0.50970674 0.014184259 42 60
3.8820643 -0.51093507 0.068392411 25 68
3.8530576 -0.39299592 -0.15343694 53 35
3.8647625 -0.39418486 -0.10011006 41 43
3.8904598 -0.28224006 -0.053289864 37 50
3.9257362 -0.2847749 0.00068067835 97 58
3.8587358 -0.16682898 -0.16639495 37 33
3.8656776 -0.16712235 -0.11310153 96 41
3.729387 -0.72936177 -0.28895792 29 21
3.7475491 -0.73360085 -0.23731641 30 25
3.6574121 -0.94200051 -0.37931928 54 14
3.7553394 -0.73512924 -0.18472384 25 30
3.7671859 -0.73813629 -0.13212942 37 38
3.8131416 -0.6320855 -0.086224735 25 45
3.701205 -0.72652107 -0.46862027 30 9
3.823715 -0.63452536 -0.032840252 38 53
3.7097623 -0.72820461 -0.39289665 30 13
3.7195451 -0.73080355 -0.34103006 28 17
3.721483 -0.61888099 -0.50186795 31 8
3.6846499 -0.83979577 -0.44965011 29 10
3.7888181 -0.6328072 -0.1920955 28 29
3.7960498 -0.63401604 -0.13846548 61 37
3.7263625 -0.51098949 -0.54675251 53 7
3.8835473 -0.41664901 -0.046604943 41 51
3.8054094 -0.29549724 -0.26371771 43 23
3.7589314 -0.51545084 -0.40758219 52 12
3.8936896 -0.41842028 0.0074490602 43 59
3.8285713 -0.29795167 -0.21201652 34 27
3.7690477 -0.51750684 -0.35554281 37 16
3.9081233 -0.41996533 0.061859723 43 67
3.856005 -0.30074444 -0.15992491 44 34
3.7735116 -0.51879007 -0.30289495 38 20
3.8678253 -0.30165809 -0.10668842 27 42
3.7773368 -0.51931542 -0.25018808 47 24
3.8000371 -0.52378464 -0.19847564 29 28
3.8221221 -0.5275054 -0.1461668 53 36
3.791378 -0.29774615 -0.36869434 35 15
3.8335857 -0.52976775 -0.093028799 42 44
3.8010595 -0.29916713 -0.31648037 37 19
3.85432 -0.53263015 -0.03902369 44 52
3.8709188 -0.52322197 0.014184259 46 60
3.8852115 -0.52515185 0.068480551 36 68
3.8466938 -0.40592101 -0.15323715 46 35
3.858392 -0.40715057 -0.099980049 44 43
3.889451 -0.29581857 -0.053289864 38 50
3.8997891 -0.29659769 0.00067631504 98 58
3.85813 -0.18029746 -0.16639495 31 33
3.8900337 -0.18175736 -0.11383884 96 41
3.7268183 -0.74237531 -0.28895792 31 21
3.740072 -0.7457 -0.23700333 32 25
3.6589131 -0.95602381 -0.37982368 54 14
3.7576478 -0.74921197 -0.18496722 28 30
3.81584 -0.6462273 -0.086337298 30 45
3.7035108 -0.74041098 -0.4692426 37 9
3.7071977 -0.74114966 -0.39289665 34 13
3.7169716 -0.74378276 -0.34103006 31 17
3.7193003 -0.63186759 -0.50186795 46 8
3.6768608 -0.851529 -0.44905373 31 10
3.7865863 -0.64602882 -0.1920955 30 29
3.7938135 -0.64726287 -0.13846548 42 37
3.7147582 -0.52261674 -0.54530036 54 7
3.8771002 -0.42965397 -0.046544731 40 51
3.8093266 -0.3091788 -0.26406559 35 23
3.7571092 -0.52856874 -0.40758219 52 12
3.8922055 -0.43200925 0.0074490602 42 59
3.827508 -0.31131408 -0.21201652 33 27
3.7672186 -0.53066009 -0.35554281 48 16
3.9066339 -0.43360469 0.061859723 42 67
3.8549318 -0.31420255 -0.15992491 34 34
3.7716777 -0.53195894 -0.30289495 46 20
3.8617671 -0.3147549 -0.10654968 32 42
3.775501 -0.53249764 -0.25018808 51 24
3.793242 -0.53634775 -0.19821484 39 28
3.8153107 -0.54014421 -0.14597574 53 36
3.780396 -0.31017193 -0.36772025 36 15
3.8317132 -0.54314625 -0.093028799 44 44
3.7950258 -0.31202868 -0.31606284 35 19
3.8524375 -0.54608101 -0.03902369 42 52
3.864116 -0.53604442 0.014165933 46 60
3.7820175 -0.18806164 -0.42734265 86 11
3.8402863 -0.41880643 -0.15303737 47 35
3.8569469 -0.42061639 -0.099980049 30 43
3.8834102 -0.30900034 -0.053220924 28 50
3.9236522 -0.31217453 0.00068067835 39 58
3.8574772 -0.19376373 -0.16639495 29 33
3.8594251 -0.1938597 -0.11295408 51 41
3.7242045 -0.75537986 -0.28895792 36 21
3.7423363 -0.7597456 -0.23731641 38 25
3.6459394 -0.96623176 -0.37881488 50 14
3.7550097 -0.76232398 -0.18496722 29 30
3.808636 -0.65869057 -0.086224735 45 45
3.7009041 -0.75333411 -0.4692426 31 9
3.7094605 -0.75507963 -0.39341843 42 13
3.7192311 -0.75774896 -0.34148234 32 17
3.7121892 -0.64399874 -0.50120234 53 8
3.6738658 -0.86435848 -0.44905373 30 10
3.7793884 -0.6583848 -0.19184341 42 29
3.7964535 -0.66136009 -0.13864696 65 37
3.7129116 -0.53558058 -0.54530036 57 7
3.8805444 -0.44375092 -0.046604943 33 51
3.8032539 -0.32205659 -0.26371771 39 23
3.7503211 -0.54097134 -0.40704307 45 12
3.8857062 -0.44502607 0.0074394611 33 59
3.8263981 -0.32467264 -0.21201652 21 27
3.7604163 -0.54309601 -0.35507312 42 16
3.9050963 -0.44723871 0.061859723 38 67
3.8438554 -0.32681733 -0.1595079 31 34
3.7697978 -0.54512131 -0.30289495 46 20
3.8606446 -0.32823306 -0.10654968 30 42
3.7736192 -0.54567337 -0.25018808 43 24
3.7913465 -0.54958534 -0.19821484 48 28
3.8134019 -0.55345881 -0.14597574 46 36
3.7792902 -0.32336608 -0.36772025 36 15
3.8297942 -0.55651808 -0.093028799 35 44
3.7939138 -0.32527387 -0.31606284 33 19
3.8455601 -0.55880684 -0.038973074 38 52
3.8622215 -0.54952943 0.014165933 43 60
3.7763772 -0.20100306 -0.42677665 89 11
3.8388011 -0.43220896 -0.15303737 41 35
3.8554556 -0.43407705 -0.099980049 29 43
3.887291 -0.32296464 -0.053289864 19 50
3.9026065 -0.32422647 0.00067718769 48 58
3.9271331 -0.32624725 0.055203795 30 66
3.851789 -0.20696448 -0.16617772 31 33
3.8836796 -0.20864697 -0.11369138 45 41
3.721545 -0.7683751 -0.28895792 44 21
3.7347753 -0.77179223 -0.23700333 43 25
3.6473472 -0.98024851 -0.37931928 50 14
3.7474356 -0.77441406 -0.18472384 30 30
3.8063133 -0.67198116 -0.086224735 49 45
3.703109 -0.76725668 -0.46986493 49 9
3.7068021 -0.76802349 -0.39341843 46 13
3.7165637 -0.77072692 -0.34148234 46 17
3.709919 -0.6569528 -0.50120234 53 8
3.6708262 -0.87717742 -0.44905373 30 10
3.7770674 -0.67157328 -0.19184341 39 29
3.794122 -0.67460811 -0.13864696 64 37
3.7110193 -0.54853773 -0.54530036 55 7
3.874006 -0.45671055 -0.046544731 25 51
3.8070753 -0.33576518 -0.26406559 21 23
3.7484097 -0.55405909 -0.40704307 34 12
3.8890948 -0.45917124 0.0074490602 28 59
3.8252413 -0.33802733 -0.21201652 17 27
3.7584977 -0.55621904 -0.35507312 36 16
3.898546 -0.46028319 0.061780311 25 67
3.8426912 -0.34023288 -0.1595079 36 34
3.7629418 -0.55754721 -0.30249485 43 20
3.8594754 -0.3417072 -0.10654968 22 42
3.7716916 -0.55884242 -0.25018808 41 24
3.9036269 -0.23156983 -0.060190167 77 49
3.7894051 -0.56281632 -0.19821484 42 28
3.8114469 -0.56676668 -0.14597574 41 36
3.7781384 -0.33655626 -0.36772025 27 15
3.8278282 -0.56988323 -0.093028799 23 44
3.7927551 -0.33851513 -0.31606284 22 19
3.843586 -0.572227 -0.038973074 37 52
3.8553319 -0.56228679 0.014147607 42 60
3.7756526 -0.21418385 -0.42677665 69 11
3.8372688 -0.44560626 -0.15303737 40 35
3.8539169 -0.44753247 -0.099980049 27 43
3.8811586 -0.33610395 -0.053220924 22 50
3.9014509 -0.33784714 0.00067718769 47 58
3.9309514 -0.34038144 0.055274475 98 66
3.8560305 -0.22068906 -0.16639495 42 33
3.8779373 -0.22192152 -0.11354392 53 41
3.7188401 -0.78136104 -0.28895792 48 21
3.7271755 -0.7837953 -0.23669024 61 25
3.754483 -0.78954989 -0.1852106 37 30
3.8039446 -0.68526363 -0.086224735 43 45
3.6955545 -0.77915275 -0.4692426 61 9
3.6992335 -0.77993 -0.39289665 49 13
3.7089789 -0.78266525 -0.34103006 49 17
3.707603 -0.66989887 -0.50120234 43 8
3.6677418 -0.88998562 -0.44905373 51 10
3.7796135 -0.6856457 -0.1920955 43 29
3.7868276 -0.68695539 -0.13846548 42 37
3.7090816 -0.56148827 -0.54530036 54 7
3.8723881 -0.47023052 -0.046544731 28 51
3.8058798 -0.34905228 -0.26406559 25 23
3.7415378 -0.56639683 -0.40650395 32 12
3.8874681 -0.4727439 0.0074490602 20 59
3.8240383 -0.35137784 -0.21201652 23 27
3.7516112 -0.56859004 -0.35460344 14 16
3.8919528 -0.47328737 0.061700907 23 67
3.8514302 -0.35455334 -0.15992491 36 34
3.760973 -0.57067895 -0.30249485 37 20
3.8582592 -0.35517722 -0.10654968 25 42
3.7697182 -0.57200468 -0.25018808 45 24
3.897805 -0.24488592 -0.060112499 97 49
3.7874174 -0.57604027 -0.19821484 17 28
3.8094454 -0.58006769 -0.14597574 38 36
3.7769406 -0.34974238 -0.36772025 30 15
3.820874 -0.58248866 -0.092907511 14 44
3.7915504 -0.35175222 -0.31606284 26 19
3.8366222 -0.58488727 -0.038922463 30 52
3.8533456 -0.57574105 0.014147607 40 60
3.7798409 -0.22765578 -0.42734265 96 11
3.8356903 -0.45899808 -0.15303737 30 35
3.847368 -0.4603906 -0.099850036 23 43
3.8799617 -0.34964967 -0.053220924 25 50
3.9002476 -0.35146371 0.00067718769 42 58
3.9098206 -0.35231975 0.054991744 98 66
3.8552368 -0.23414779 -0.16639495 46 33
3.8721504 -0.23515858 -0.11339646 52 41
3.7112153 -0.7932933 -0.2885752 52 21
3.724417 -0.79680085 -0.23669024 54 25
3.8015294 -0.69853771 -0.086224735 38 45
3.6928124 -0.79204792 -0.4692426 39 9
3.6964886 -0.79283804 -0.39289665 47 13
3.7062242 -0.79560727 -0.34103006 48 17
3.7149885 -0.68463433 -0.50253356 40 8
3.6646132 -0.90278298 -0.44905373 38 10
3.7722867 -0.69792563 -0.19184341 39 29
3.7844064 -0.70016968 -0.13846548 43 37
3.7070994 -0.5744319 -0.54530036 30 7
3.8707232 -0.48374483 -0.046544731 25 51
3.8046384 -0.36233518 -0.26406559 29 23
3.7444506 -0.58021414 -0.40704307 31 12
3.8808329 -0.48569199 0.0074394611 20 59
3.8227882 -0.36472407 -0.21201652 35 27
3.7496037 -0.58168215 -0.35460344 17 16
3.8902769 -0.48686996 0.061700907 21 67
3.8451958 -0.36752331 -0.15971641 40 34
3.7589579 -0.58380371 -0.30249485 17 20
3.8569958 -0.3686429 -0.10654968 32 42
3.7726285 -0.58592492 -0.25051859 38 24
3.8969264 -0.25849032 -0.060112499 37 49
3.7853835 -0.58925736 -0.19821484 20 28
3.8024602 -0.59259295 -0.14578466 38 36
3.7756968 -0.36292422 -0.36772025 37 15
3.8188176 -0.59582251 -0.092907511 14 44
3.7902997 -0.36498505 -0.31606284 32 19
3.8345573 -0.59827608 -0.038922463 17 52
3.84637 -0.58843273 0.014129281 38 60
3.7641492 -0.23991531 -0.42564461 95 11
3.8291059 -0.47177547 -0.15283757 29 35
3.8457375 -0.47381759 -0.099850036 28 43
3.8737397 -0.36272842 -0.053151984 33 50
3.8989971 -0.36507595 0.00067718769 45 58
3.9185231 -0.36689076 0.055133108 36 66
3.8543959 -0.24760365 -0.16639495 50 33
3.8713059 -0.24867348 -0.11339646 49 41
3.7084236 -0.80624306 -0.2885752 44 21
3.7216127 -0.80979663 -0.23669024 46 25
3.6900251 -0.80493337 -0.4692426 38 9
3.6936984 -0.8057363 -0.39289665 47 13
3.7034247 -0.80853957 -0.34103006 38 17
3.7125762 -0.6975978 -0.50253356 34 8
3.6566243 -0.91436172 -0.44845739 45 10
3.7698278 -0.71108913 -0.19184341 23 29
3.7721198 -0.7115218 -0.13810253 41 37
3.7050717 -0.58736867 -0.54530036 30 7
3.8690109 -0.49725321 -0.046544731 27 51
3.8033504 -0.37561363 -0.26406559 38 23
3.7374928 -0.59250367 -0.40650395 31 12
3.8791139 -0.49923563 0.0074394611 32 59
3.821492 -0.37806585 -0.21201652 36 27
3.7475502 -0.59476709 -0.35460344 20 16
3.8885536 -0.50044656 0.061700907 23 67
3.8438895 -0.38094333 -0.15971641 44 34
3.756897 -0.59692138 -0.30249485 17 20
3.8556857 -0.3821041 -0.10654968 37 42
3.7656326 -0.59830815 -0.25018808 23 24
3.8910129 -0.27174804 -0.060034838 49 49
3.7783723 -0.60168266 -0.19795403 20 28
3.7954345 -0.60507649 -0.1455936 34 36
3.7843111 -0.37708151 -0.36869434 41 15
3.8216505 -0.60993612 -0.093028799 17 44
3.7939608 -0.37870488 -0.31648037 38 19
3.837383 -0.61244476 -0.038973074 17 52
3.763289 -0.25305319 -0.42564461 67 11
3.8274357 -0.48513871 -0.15283757 34 35
3.8440602 -0.48723885 -0.099850036 31 43
3.8774261 -0.37672812 -0.053220924 38 50
3.8976991 -0.37868375 0.00067718769 46 58
3.9072657 -0.3796066 0.054991744 44 66
3.8535082 -0.26105648 -0.16639495 54 33
3.9458568 -0.38402444 0.11041768 42 71
3.8704145 -0.26218531 -0.11339646 48 41
3.7055867 -0.81918287 -0.2885752 41 21
3.713891 -0.82170242 -0.23637715 43 25
3.6871927 -0.81780905 -0.4692426 25 9
3.6957176 -0.81970364 -0.39341843 35 13
3.7005796 -0.82146204 -0.34103006 38 17
3.7101185 -0.71055293 -0.50253356 29 8
3.6582212 -0.92834461 -0.44905373 57 10
3.7673223 -0.72424394 -0.19184341 20 29
3.7794261 -0.72657257 -0.13846548 31 37
3.7078824 -0.60108912 -0.54602647 31 7
3.8622952 -0.51010299 -0.046484515 40 51
3.8020163 -0.38888749 -0.26406559 44 23
3.7403085 -0.60634106 -0.40704307 29 12
3.8723903 -0.51211971 0.0074298615 35 59
3.8151822 -0.39089769 -0.21173827 44 27
3.7454517 -0.60784495 -0.35460344 23 16
3.8867831 -0.51401711 0.061700907 25 67
3.8425362 -0.39435866 -0.15971641 48 34
3.749871 -0.60923326 -0.3020947 25 20
3.8543282 -0.39556059 -0.10654968 43 42
3.7585969 -0.61064965 -0.24985757 26 24
3.8900406 -0.28532854 -0.060034838 58 49
3.7762492 -0.61486799 -0.19795403 20 28
3.925359 -0.28857377 -0.0061266506 69 57
3.7932992 -0.61832136 -0.1455936 36 36
3.7829716 -0.39028895 -0.36869434 42 15
3.8145649 -0.62246811 -0.092907511 23 44
3.7926159 -0.39194599 -0.31648037 42 19
3.8302872 -0.62503147 -0.038922463 23 52
3.7673383 -0.26653364 -0.42621061 42 11
3.8306732 -0.49913943 -0.15303737 46 35
3.8423357 -0.50065416 -0.099850036 29 43
3.8810623 -0.39075801 -0.053289864 39 50
3.8913782 -0.3917895 0.00067631504 45 58
3.9009421 -0.39274579 0.054921061 46 66
3.8525734 -0.27450612 -0.16639495 52 33
3.9345458 -0.39679942 0.11013672 97 71
3.8694756 -0.27569398 -0.11339646 44 41
3.7027047 -0.83211279 -0.2885752 40 21
3.7110004 -0.8346613 -0.23637715 41 25
3.6794763 -0.82958156 -0.46862027 29 9
3.6879833 -0.83150333 -0.39289665 43 13
3.6976898 -0.83437443 -0.34103006 39 17
3.7027519 -0.72254956 -0.50186795 28 8
3.6549582 -0.94110847 -0.44905373 58 10
3.7647712 -0.73738992 -0.19184341 23 29
3.762157 -0.7368775 -0.13792105 41 37
3.7057614 -0.61402839 -0.54602647 39 7
3.8604906 -0.52358174 -0.046484515 42 51
3.795675 -0.40163529 -0.26371771 48 23
3.7381692 -0.61939347 -0.40704307 31 12
3.8705795 -0.52563369 0.0074298615 35 59
3.8137944 -0.40421277 -0.21173827 48 27
3.7433071 -0.62091529 -0.35460344 28 16
3.8800111 -0.5269106 0.061621495 30 67
3.8361681 -0.40724531 -0.1595079 47 34
3.7477217 -0.62231898 -0.3020947 30 20
3.8479533 -0.40848815 -0.10641094 46 42
3.7564425 -0.62376583 -0.24985757 40 24
3.8840356 -0.29852727 -0.059957169 38 49
3.7790053 -0.62886482 -0.19821484 29 28
3.9243279 -0.30227408 -0.0061266506 97 57
3.7960465 -0.632379 -0.14578466 49 36
3.7766378 -0.40296713 -0.36820731 43 15
3.8074381 -0.63495809 -0.092786223 29 44
3.7862697 -0.40465626 -0.31606284 46 19
3.8280821 -0.63839787 -0.038922463 33 52
3.7663851 -0.27968249 -0.42621061 44 11
3.8239553 -0.5118472 -0.15283757 44 35
3.8405647 -0.51406336 -0.099850036 37 43
3.8697288 -0.40327352 -0.053151984 42 50
3.889987 -0.40537059 0.00067631504 44 58
3.8896015 -0.40533069 0.054779693 45 66
3.8515916 -0.28795248 -0.16639495 51 33
3.9182229 -0.40898466 0.10971528 97 71
3.8635051 -0.28883153 -0.113249 38 41
3.7046373 -0.84614474 -0.28895792 29 21
3.6717231 -0.8413102 -0.46799794 29 9
3.6802118 -0.8432591 -0.39237487 43 13
3.6899016 -0.8461616 -0.34057775 37 17
3.7050674 -0.7364369 -0.50253356 28 8
3.6516509 -0.95386106 -0.44905373 60 10
3.7621744 -0.75052696 -0.19184341 25 29
3.7035954 -0.62696022 -0.54602647 49 7
3.8536873 -0.53636706 -0.046424303 41 51
3.7942498 -0.41488221 -0.26371771 48 23
3.7359843 -0.63243836 -0.40704307 51 12
3.8687208 -0.53914142 0.0074298615 36 59
3.81236 -0.41752294 -0.21173827 29 27
3.7460248 -0.63480908 -0.35507312 31 16
3.8781478 -0.54045123 0.061621495 41 67
3.8347232 -0.42063355 -0.1595079 47 34
3.7455266 -0.6353972 -0.3020947 37 20
3.846504 -0.42191753 -0.10641094 39 42
3.7542422 -0.6368745 -0.24985757 47 24
3.8829701 -0.31208327 -0.059957169 30 49
3.7767873 -0.64205211 -0.19821484 25 28
3.9132802 -0.31517735 -0.0061109411 32 57
3.7938159 -0.64562577 -0.14578466 51 36
3.7752082 -0.41614756 -0.36820731 46 15
3.8101261 -0.64908344 -0.092907511 33 44
3.7848341 -0.41787034 -0.31606284 36 19
3.8258302 -0.65175647 -0.038922463 40 52
3.7653859 -0.29282793 -0.42621061 36 11
3.8221457 -0.5251922 -0.15283757 52 35
3.838747 -0.52746636 -0.099850036 41 43
3.8682976 -0.41677892 -0.053151984 36 50
3.8885481 -0.41894665 0.00067631504 44 58
3.8881631 -0.41890544 0.054779693 37 66
3.850563 -0.3013953 -0.16639495 37 33
3.9018624 -0.42106083 0.10929383 95 71
3.8574903 -0.30193076 -0.11310153 36 41
3.6968052 -0.85794204 -0.2885752 31 21
3.6687636 -0.85412174 -0.46799794 30 9
3.6820884 -0.85722989 -0.39289665 34 13
3.6917748 -0.86016864 -0.34103006 32 17
3.7024741 -0.74936551 -0.50253356 31 8
3.648299 -0.96660179 -0.44905373 53 10
3.7595317 -0.76365483 -0.19184341 29 29
3.7013843 -0.63988435 -0.54602647 52 7
3.8567414 -0.55052012 -0.046484515 39 51
3.7927785 -0.4281241 -0.26371771 42 23
3.7337539 -0.64547551 -0.40704307 48 12
3.8668151 -0.55264246 0.0074298615 45 59
3.8059187 -0.4302707 -0.21146004 42 27
3.7437861 -0.64788127 -0.35507312 37 16
3.8282676 -0.43345809 -0.1592994 44 34
3.7481966 -0.64931768 -0.30249485 37 20
3.8450079 -0.43534172 -0.10641094 29 42
3.7569118 -0.65082622 -0.25018808 50 24
3.8768749 -0.32522231 -0.059879508 24 49
3.7745233 -0.65523165 -0.19821484 28 28
3.9171395 -0.32924941 -0.0061187958 42 57
3.7964618 -0.65971947 -0.14597574 52 36
3.7786775 -0.42988199 -0.36869434 33 15
3.8078375 -0.66237926 -0.092907511 41 44
3.7833524 -0.43107933 -0.31606284 36 19
3.7643406 -0.30596977 -0.42621061 37 11
3.8202889 -0.53853077 -0.15283757 51 35
3.8319325 -0.54016715 -0.099720016 44 43
3.8668191 -0.43027925 -0.053151984 38 50
3.8820922 -0.43196812 0.0006754424 43 58
3.8916461 -0.43302459 0.054850377 37 66
3.8494875 -0.31483439 -0.16639495 31 33
3.9003689 -0.43467829 0.10929383 70 71
3.8564129 -0.31539404 -0.11310153 31 41
3.6986399 -0.87198716 -0.28895792 29 21
3.6657598 -0.86692291 -0.46799794 30 9
3.6790736 -0.87007755 -0.39289665 36 13
3.6887496 -0.87305009 -0.34103006 30 17
3.6998355 -0.76228499 -0.50253356 44 8
3.6449029 -0.9793309 -0.44905373 48 10
3.7568433 -0.77677339 -0.19184341 34 29
3.6991284 -0.65280068 -0.54602647 56 7
3.849849 -0.56325758 -0.046424303 40 51
3.7912612 -0.44136077 -0.26371771 35 23
3.7314782 -0.65850484 -0.40704307 55 12
3.8648627 -0.56613678 0.0074298615 35 59
3.8043938 -0.44355321 -0.21146004 35 27
3.741502 -0.66094559 -0.35507312 47 16
3.8267312 -0.44681862 -0.1592994 34 34
3.7459071 -0.66239733 -0.30249485 41 20
3.8385003 -0.44818452 -0.10627221 34 42
3.7546172 -0.66393632 -0.25018808 51 24
3.8806968 -0.33918369 -0.059957169 21 49
3.7722127 -0.66840327 -0.19821484 36 28
3.901022 -0.34162647 -0.0060952315 43 57
3.7941358 -0.67296761 -0.14597574 54 36
3.7672682 -0.44191685 -0.36772025 36 15
3.9306159 -0.34418955 0.048450842 95 65
3.8005805 -0.67479396 -0.092786223 44 44
3.776876 -0.44370523 -0.31564534 36 19
3.7632496 -0.31910789 -0.42621061 38 11
3.8183858 -0.55186278 -0.15283757 45 35
3.8300238 -0.55353981 -0.099720016 33 43
3.8652935 -0.44377434 -0.053151984 25 50
3.8805609 -0.44551653 0.0006754424 41 58
3.8851438 -0.4460395 0.054779693 17 66
3.8433874 -0.32784998 -0.16617772 28 33
3.898828 -0.44829047 0.10929383 38 71
3.8602688 -0.32927349 -0.113249 28 41
3.6955736 -0.88489252 -0.28895792 30 21
3.6627114 -0.87971354 -0.46799794 32 9
3.6760139 -0.8829146 -0.39289665 43 13
3.6856797 -0.88592088 -0.34103006 37 17
3.7020023 -0.77621287 -0.50319916 54 8
3.7541087 -0.78988248 -0.19184341 37 29
3.691958 -0.66483295 -0.54530036 57 7
3.8478594 -0.57669258 -0.046424303 29 51
3.7896974 -0.45459205 -0.26371771 23 23
3.7242644 -0.67064577 -0.40650395 45 12
3.857918 -0.5788843 0.0074202628 42 59
3.8028224 -0.45683032 -0.21146004 22 27
3.734273 -0.67311949 -0.35460344 42 16
3.8201876 -0.45958042 -0.15909089 36 34
3.743572 -0.67546898 -0.30249485 49 20
3.8319495 -0.46098712 -0.10613347 30 42
3.7522769 -0.67703837 -0.25018808 45 24
3.8794892 -0.35272777 -0.059957169 22 49
3.7747703 -0.68245423 -0.19847564 48 28
3.8998058 -0.35524151 -0.0060952315 38 57
3.7819304 -0.68442941 -0.1455936 45 36
3.7657027 -0.45506439 -0.36772025 36 15
3.9194314 -0.3570103 0.048326928 98 65
3.7982016 -0.68805635 -0.092786223 45 44
3.7753041 -0.45688629 -0.31564534 35 19
3.7621129 -0.33224216 -0.42621061 30 11
3.8114941 -0.56445825 -0.15263779 41 35
3.8280685 -0.56690568 -0.099720016 23 43
3.8587556 -0.45667988 -0.053083044 21 50
3.8789821 -0.45905954 0.0006754424 34 58
3.883563 -0.45959848 0.054779693 19 66
3.8422196 -0.34126389 -0.16617772 32 33
3.8575296 -0.45721832 0.10816999 45 71
3.8541169 -0.34230897 -0.11310153 28 41
3.692462 -0.89778709 -0.28895792 40 21
3.6499798 -0.89013845 -0.46675327 32 9
3.67291 -0.89574093 -0.39289665 65 13
3.6825647 -0.898781 -0.34103006 34 17
3.6944237 -0.78809595 -0.50253356 54 8
3.6993465 -0.67950243 -0.54675251 57 7
3.8408809 -0.58936447 -0.046364091 25 51
3.7831368 -0.46720991 -0.26336977 22 23
3.7219009 -0.68364191 -0.40650395 42 12
3.8608162 -0.5931046 0.0074298615 33 59
