# .PCD v0.7 - Point Cloud Data file format
VERSION 0.7
FIELDS x y z intensity ring
SIZE 4 4 4 4 2
TYPE F F F F U
COUNT 1 1 1 1 1
WIDTH 1232
HEIGHT 1
VIEWPOINT 0 0 0 1 0 0 0
POINTS 1232
DATA ascii
3.5079556 0.69223607 -0.42519963 60 10
3.5314953 0.79815382 -0.2751798 58 21
3.5545139 0.80269355 -0.22635853 59 25
3.5596147 0.586707 -0.36216921 23 14
3.5693333 0.5876587 -0.31207526 23 18
3.5881104 0.59008712 -0.263762 29 22
3.6061764 0.59303904 -0.21435453 23 26
3.6286039 0.59605336 -0.16471308 36 32
3.6404924 0.59734136 -0.11416923 31 40
3.5232422 0.79306167 -0.32474744 72 17
3.6565166 0.59995395 -0.063410401 23 48
3.6768818 0.60261542 -0.012236998 36 56
3.6865647 0.60419238 0.039391335 12 64
3.6000154 0.69793779 -0.17059873 38 31
3.6167264 0.7011649 -0.12038022 43 39
3.5152252 0.68092716 -0.42579597 58 10
3.6489506 0.69946253 -0.070004933 71 47
3.5391264 0.78690147 -0.27556252 54 21
3.552422 0.7892009 -0.22604544 49 25
3.5616407 0.574278 -0.36216921 25 14
3.5697875 0.79305077 -0.176449 51 30
3.5762813 0.57598281 -0.3125093 25 18
3.5901482 0.5775587 -0.263762 26 22
3.6082244 0.58044755 -0.21435453 23 26
3.6355948 0.58417094 -0.16493902 28 32
3.6425555 0.58463007 -0.11416923 28 40
3.5259893 0.78075844 -0.32474744 57 17
3.6585886 0.58718675 -0.063410401 29 48
3.6789629 0.58977705 -0.012236998 41 56
3.6837142 0.59053379 0.039338104 47 64
3.6122439 0.68722683 -0.17106806 44 31
3.6191516 0.68853587 -0.12038022 55 39
3.5175803 0.66865259 -0.42579597 50 10
3.6464565 0.68580067 -0.069909826 54 47
3.5418518 0.77454287 -0.27556252 43 21
3.5600312 0.77785897 -0.22635853 41 25
3.5685387 0.5626117 -0.36267364 28 14
3.5676548 0.77952123 -0.17620562 52 30
3.5782702 0.5634957 -0.3125093 30 18
3.5970693 0.56579298 -0.26412731 34 22
3.6102285 0.56784892 -0.21435453 23 26
3.6376116 0.57147682 -0.16493902 35 32
3.6445739 0.57191157 -0.11416923 30 40
3.528693 0.76844561 -0.32474744 43 17
3.670495 0.57595217 -0.06358318 30 48
3.680999 0.57693148 -0.012236998 53 56
3.6906927 0.57844079 0.039391335 40 64
3.6097102 0.67370081 -0.17083338 49 31
3.6215332 0.67589843 -0.12038022 42 39
3.5247736 0.65727621 -0.42639232 46 10
3.6488283 0.67306799 -0.069909826 46 47
3.544534 0.76217479 -0.27556252 40 21
3.5627248 0.76542741 -0.22635853 38 25
3.5704808 0.55015177 -0.36267364 30 14
3.5752373 0.76810986 -0.176449 44 30
3.5851393 0.55175442 -0.31294334 33 18
3.6039519 0.55398595 -0.26449263 45 22
3.6121886 0.55524343 -0.21435453 25 26
3.6346469 0.5580228 -0.16471308 49 32
3.6416073 0.55843371 -0.11401304 33 40
3.5264843 0.7550832 -0.32429516 39 17
3.6675408 0.56238359 -0.063496798 32 48
3.6879337 0.56483084 -0.012253581 43 56
3.6877468 0.56480241 0.039338104 49 64
3.6169536 0.66199213 -0.17106806 47 31
3.6287866 0.66414893 -0.12054512 47 39
3.5319307 0.64585787 -0.42698869 48 10
3.6511555 0.66032714 -0.069909826 43 47
3.5471728 0.7497974 -0.27556252 32 21
3.5653749 0.75298655 -0.22635853 32 25
3.5723794 0.5376851 -0.36267364 32 14
3.5778968 0.75562531 -0.176449 42 30
3.59197 0.53997201 -0.31337738 39 18
3.6058636 0.54140246 -0.26449263 51 22
3.6190417 0.54336721 -0.21465018 47 26
3.6415129 0.54606777 -0.16493902 52 32
3.5144641 0.74033612 -0.3730692 54 13
3.6484778 0.54645395 -0.11416923 43 40
3.5339715 0.74379218 -0.32474744 25 17
3.6694818 0.54957801 -0.063496798 35 48
3.689883 0.55195421 -0.012253581 45 56
3.6896961 0.55192637 0.039338104 50 64
3.6192424 0.64936262 -0.17106806 43 31
3.6939332 0.55123782 0.091044627 13 70
3.631083 0.65147811 -0.12054512 41 39
3.5341637 0.63352513 -0.42698869 46 10
3.6485147 0.6467092 -0.069814704 27 47
3.5546503 0.73842275 -0.27594528 26 21
3.6737418 0.65116197 -0.018702513 65 55
3.5728681 0.74154836 -0.22667161 20 25
3.5742345 0.52521193 -0.36267364 37 14
3.5805125 0.74313146 -0.176449 36 30
3.5889039 0.52671224 -0.31294334 54 18
3.6022825 0.74698412 -0.12657338 52 38
3.6077316 0.52881235 -0.26449263 52 22
3.6258554 0.53144985 -0.21494585 54 26
3.6433966 0.53335315 -0.16493902 51 32
3.5121572 0.72705793 -0.37254742 35 13
3.650363 0.53371507 -0.11416923 49 40
3.5365465 0.73145181 -0.32474744 23 17
3.6713777 0.53676581 -0.063496798 44 48
3.691787 0.53907067 -0.012253581 54 56
3.6916001 0.53904355 0.039338104 41 64
3.6214871 0.63672513 -0.17106806 41 31
3.7007818 0.53905576 0.091167666 27 70
3.6333349 0.63879925 -0.12054512 40 39
3.5363538 0.62118483 -0.42698869 43 10
3.6507502 0.63396955 -0.069814704 23 47
3.5572064 0.7260102 -0.27594528 25 21
3.6710658 0.63748229 -0.018677205 52 55
3.5754347 0.72907221 -0.22667161 31 25
3.5809705 0.51343316 -0.36317804 49 14
3.5830848 0.73062867 -0.176449 28 30
3.5907209 0.51418138 -0.31294334 51 18
3.6048684 0.73440534 -0.12657338 58 38
3.6095555 0.51621574 -0.26449263 54 22
3.6227467 0.51808846 -0.21465018 44 26
3.6452363 0.52063209 -0.16493902 52 32
3.5244205 0.71677148 -0.37359098 23 13
3.6522038 0.52096969 -0.11416923 49 40
3.534198 0.71811324 -0.32429516 31 17
3.673229 0.52394706 -0.063496798 37 48
3.6886954 0.52548045 -0.012236998 44 56
3.693459 0.52615422 0.039338104 39 64
3.6236875 0.62407982 -0.17106806 40 31
3.6927419 0.52473783 0.090921603 54 70
3.6355424 0.62611264 -0.12054512 37 39
3.5433934 0.60967499 -0.42758507 43 10
3.6480122 0.62038767 -0.06971959 23 47
3.5548298 0.71261108 -0.27556252 28 21
3.6732686 0.62466401 -0.018677205 44 55
3.5779579 0.71658719 -0.22667161 23 25
3.5827413 0.50093013 -0.36317804 46 14
3.5856133 0.71811688 -0.176449 25 30
3.5974274 0.50232804 -0.31337738 50 18
3.6123097 0.72279572 -0.126747 44 38
3.6113353 0.50361294 -0.26449263 46 22
3.6245332 0.50543958 -0.21465018 34 26
3.6420836 0.5072208 -0.16471308 54 32
3.5220244 0.70349276 -0.3730692 25 13
3.654 0.50821793 -0.11416923 35 40
3.5366833 0.70577216 -0.32429516 28 17
3.6750355 0.51112193 -0.063496798 42 48
3.6954606 0.51328421 -0.012253581 43 56
3.6952732 0.5132584 0.039338104 35 64
3.625844 0.61142701 -0.17106806 37 31
3.6995029 0.5125255 0.091044627 42 70
3.637706 0.6134184 -0.12054512 35 39
3.5406041 0.59648144 -0.42698869 26 10
3.655087 0.60846722 -0.069814704 23 47
3.5572958 0.70019805 -0.27556252 31 21
3.6754265 0.6118381 -0.018677205 46 55
3.5804377 0.7040934 -0.22667161 25 25
3.5844679 0.48842102 -0.36317804 42 14
3.592999 0.70655781 -0.17669237 30 30
3.599159 0.48976761 -0.31337738 47 18
3.6148109 0.71018201 -0.126747 59 38
3.6130714 0.49100396 -0.26449263 37 22
3.6262755 0.49278453 -0.21465018 32 26
3.643832 0.49450442 -0.16471308 42 32
3.5244584 0.69119436 -0.3730692 29 13
3.6557515 0.49546 -0.11416923 36 40
3.5440118 0.69437778 -0.32474744 30 17
3.6767972 0.49829051 -0.063496798 28 48
3.6972299 0.50038153 -0.012253581 38 56
3.6970425 0.50035638 0.039338104 23 64
3.6328845 0.59957647 -0.17130271 29 31
3.7012694 0.4996087 0.091044627 45 70
3.6398249 0.60071677 -0.12054512 25 39
3.6317837 0.70890206 -0.07611496 33 46
3.5426645 0.58411878 -0.42698869 34 10
3.557076 0.80282426 -0.18226385 50 29
3.6571889 0.59570491 -0.069814704 23 47
3.5646136 0.68872017 -0.27594528 35 21
3.6775401 0.59900475 -0.018677205 39 55
3.5828733 0.69159102 -0.22667161 36 25
3.5861509 0.4759059 -0.36317804 28 14
3.6824825 0.59914643 0.032889422 39 63
3.5954435 0.69401163 -0.17669237 35 30
3.5959082 0.47655189 -0.31294334 40 18
3.6172678 0.6975596 -0.126747 59 38
3.6098192 0.47773984 -0.26412731 28 22
3.6329224 0.48077321 -0.21494585 23 26
3.6504886 0.48243147 -0.16493902 36 32
3.5317333 0.67982519 -0.37359098 32 13
3.6574588 0.482696 -0.11416923 37 40
3.5513048 0.68294084 -0.32519975 32 17
3.6785142 0.48545304 -0.063496798 23 48
3.6989539 0.48747277 -0.012253581 31 56
3.6987662 0.48744825 0.039338104 23 64
3.6300244 0.58609915 -0.17106806 28 31
3.6980345 0.48603949 0.090921603 37 70
3.6418998 0.58800769 -0.12054512 34 39
3.6391466 0.69715887 -0.076218799 46 46
3.544682 0.57174897 -0.42698869 28 10
3.5696065 0.79256618 -0.18276803 53 29
3.659246 0.58293533 -0.069814704 25 47
3.5718946 0.67719948 -0.27632797 39 21
3.6796086 0.58616406 -0.018677205 43 55
3.5852656 0.67908031 -0.22667161 43 25
3.5927246 0.46401712 -0.36368245 23 14
3.6845512 0.58628851 0.032889422 54 63
3.5978441 0.68145698 -0.17669237 47 30
3.6024907 0.46462899 -0.31337738 23 18
3.6196806 0.68492872 -0.126747 46 38
3.6114647 0.46513632 -0.26412731 29 22
3.6296272 0.46745655 -0.21465018 28 26
3.5259352 0.66595763 -0.44559377 61 9
3.6471956 0.46905383 -0.16471308 33 32
3.5389714 0.66841382 -0.37411276 40 13
3.6591215 0.46992618 -0.11416923 23 40
3.5585604 0.67146134 -0.32565203 33 17
3.6801863 0.4726097 -0.063496798 23 48
3.6956728 0.47392702 -0.012236998 29 56
3.7004454 0.47453418 0.039338104 23 64
3.6320479 0.57342446 -0.17106806 33 31
3.6997085 0.47312796 0.090921603 25 70
3.64393 0.57529151 -0.12054512 31 39
3.6366446 0.68353039 -0.07611496 51 46
3.5466564 0.55937231 -0.42698869 28 10
3.5674725 0.77903646 -0.18251593 53 29
3.6661987 0.57092428 -0.069909826 28 47
3.5742366 0.66472715 -0.27632797 44 21
3.6766911 0.57255048 -0.018651897 43 55
3.5876143 0.66656125 -0.22667161 47 25
3.5992587 0.45208815 -0.36418685 23 14
3.6865754 0.5734235 0.032889422 58 63
3.6002009 0.66889405 -0.17669237 51 30
3.6040905 0.45205113 -0.31337738 23 18
3.6269631 0.67319936 -0.12692064 43 38
3.6130664 0.45252714 -0.26412731 31 22
3.6312368 0.45478395 -0.21465018 25 26
3.5282385 0.65364575 -0.44559377 62 9
3.6488104 0.4563199 -0.16471308 30 32
3.5412831 0.6560564 -0.37411276 56 13
3.6607397 0.45715058 -0.11416923 25 40
3.5559859 0.6581316 -0.32519975 40 17
3.6818137 0.45976055 -0.063496798 25 48
3.7022669 0.4616375 -0.012253581 34 56
3.7020793 0.46161428 0.039338104 28 64
3.6340275 0.56074274 -0.17106806 42 31
3.7013376 0.46021071 0.090921603 25 70
3.645916 0.56256831 -0.12054512 38 39
3.6390083 0.67083204 -0.07611496 45 46
3.5584009 0.54849398 -0.42818138 31 10
3.5750527 0.76762652 -0.18276803 39 29
3.6681695 0.55812341 -0.069909826 30 47
3.5765352 0.65224671 -0.27632797 43 21
3.6885545 0.56121004 -0.018702513 42 55
3.5899191 0.65403414 -0.22667161 44 25
3.6008148 0.43952164 -0.36418685 29 14
3.6885545 0.5605514 0.032889422 47 63
3.6074274 0.65721595 -0.17693575 50 30
3.6056466 0.43946776 -0.31337738 29 18
3.6292911 0.66053474 -0.12692064 43 38
3.6195748 0.44050974 -0.26449263 31 22
3.6328025 0.44210577 -0.21465018 28 26
3.5304985 0.64132595 -0.44559377 49 9
3.65534 0.44417787 -0.16493902 31 32
3.5435517 0.64369106 -0.37411276 48 13
3.662313 0.44436944 -0.11416923 30 40
3.5582616 0.64571494 -0.32519975 52 17
3.6833959 0.44690582 -0.063496798 29 48
3.6988914 0.44811502 -0.012236998 49 56
3.7036681 0.44868883 0.039338104 31 64
3.6359627 0.54805422 -0.17106806 57 31
3.6929953 0.44609895 0.090675533 28 70
3.6429157 0.54909706 -0.12038022 44 39
3.6462476 0.65901232 -0.076218799 40 46
3.5602939 0.53606951 -0.42818138 38 10
3.666625 0.66268617 -0.025117356 20 54
3.5777104 0.75514263 -0.18276803 29 29
3.589663 0.75766361 -0.13193238 54 37
3.5318124 0.8525793 -0.2382901 43 24
3.6700952 0.54531568 -0.069909826 34 47
3.5836983 0.64063346 -0.27671072 43 21
3.690491 0.54833114 -0.018702513 42 55
3.5970933 0.6423741 -0.22698469 49 25
3.5973866 0.4263694 -0.36368245 30 14
3.6904888 0.54767257 0.032889422 42 63
3.6047828 0.64374381 -0.17669237 49 30
3.6071584 0.42687902 -0.31337738 32 18
3.6315744 0.64786214 -0.12692064 42 38
3.6260431 0.42845249 -0.26485798 39 22
3.6392806 0.43000287 -0.21494585 25 26
3.5327158 0.62899834 -0.44559377 46 9
3.6568685 0.43141565 -0.16493902 38 32
3.5457771 0.63131785 -0.37411276 49 13
3.6688058 0.43216246 -0.1143254 31 40
3.5653968 0.63416004 -0.32565203 51 17
3.6898992 0.43462545 -0.06358318 31 48
3.7053993 0.43577978 -0.012253581 52 56
3.7052116 0.43575788 0.039338104 30 64
3.6378534 0.53535903 -0.17106806 56 31
3.6994951 0.43378237 0.090798564 36 70
3.6497545 0.53710157 -0.12054512 53 39
3.6485257 0.64628053 -0.076218799 25 46
3.5621433 0.52363843 -0.42818138 56 10
3.6639924 0.64901328 -0.025083322 51 54
3.5803246 0.74264944 -0.18276803 35 29
3.6020713 0.74715692 -0.13229533 29 37
3.5396206 0.84140027 -0.23862059 57 24
3.6719763 0.5325014 -0.069909826 42 47
3.5859127 0.62812012 -0.27671072 43 21
3.6923826 0.53544563 -0.018702513 48 55
3.5993137 0.62981397 -0.22698469 39 25
3.6037955 0.41437271 -0.36418685 31 14
3.692378 0.534787 0.032889422 41 63
3.607008 0.63115686 -0.17669237 44 30
3.6135759 0.41484812 -0.31381142 35 18
3.6338139 0.63518167 -0.12692064 39 38
3.6275165 0.41579261 -0.26485798 51 22
3.6407595 0.41729677 -0.21494585 30 26
3.5348899 0.61666298 -0.44559377 45 9
3.6583521 0.41864815 -0.16493902 51 32
3.5528581 0.61978924 -0.37463453 44 13
3.6702917 0.41935331 -0.1143254 39 40
3.5675886 0.62171072 -0.32565203 42 17
3.6913936 0.42174265 -0.06358318 33 48
3.706898 0.42284289 -0.012253581 43 56
3.7067101 0.42282164 0.039338104 43 64
3.644644 0.52336359 -0.17130271 47 31
3.6910524 0.41974649 0.090552501 40 70
3.651607 0.52435827 -0.12054512 44 39
3.6458335 0.63268828 -0.07611496 20 46
3.5639493 0.51120108 -0.42818138 46 10
3.6662354 0.63621962 -0.025083322 39 54
3.5877883 0.73114371 -0.18302011 34 29
3.5997612 0.73358178 -0.13211384 58 37
3.5098345 0.82138151 -0.28648981 56 20
3.5376785 0.82790202 -0.2382901 58 24
3.6688621 0.5189839 -0.069814704 37 47
3.5831692 0.61475825 -0.27632797 31 21
3.6892779 0.52185678 -0.018677205 42 55
3.6014903 0.61724615 -0.22698469 20 25
3.6052198 0.40179056 -0.36418685 35 14
3.6942225 0.52189493 0.032889422 39 63
3.6141119 0.61940366 -0.17693575 41 30
3.6150019 0.40223184 -0.31381142 42 18
3.636009 0.62249345 -0.12692064 41 38
3.6289458 0.4031277 -0.26485798 53 22
3.642194 0.4045856 -0.21494585 51 26
3.5321302 0.60348684 -0.44497141 40 9
3.6597912 0.40587556 -0.16493902 54 32
3.5549998 0.60738373 -0.37463453 32 13
3.6717334 0.40653905 -0.1143254 53 40
3.569737 0.60925364 -0.32565203 25 17
3.6928434 0.40885472 -0.06358318 36 48
3.7083516 0.40990081 -0.012253581 53 56
3.7081637 0.40988022 0.039338104 37 64
3.6415024 0.50994915 -0.17106806 43 31
3.6534152 0.5116086 -0.12054512 42 39
3.6480198 0.6199581 -0.07611496 17 46
3.5657122 0.49875748 -0.42818138 45 10
3.6684339 0.62341821 -0.025083322 41 54
3.5854218 0.71763623 -0.18276803 31 29
3.6071994 0.72199178 -0.13229533 56 37
3.5272503 0.81248325 -0.28769019 41 20
3.5405469 0.81554818 -0.2382901 41 24
3.6706517 0.50617397 -0.069814704 27 47
3.5852933 0.60224688 -0.27632797 29 21
3.6960309 0.50965506 -0.018702513 42 55
3.6036227 0.60467082 -0.22698469 33 25
3.6066003 0.38920358 -0.36418685 42 14
3.6960216 0.50899649 0.032889422 31 63
3.6211772 0.60760844 -0.17717913 28 30
3.616384 0.38961071 -0.31381142 54 18
3.6381598 0.6097976 -0.12692064 37 38
3.630331 0.39045784 -0.26485798 54 22
3.620086 0.71603042 -0.082284965 31 45
3.6435843 0.39186952 -0.21494585 55 26
3.539109 0.59197003 -0.44559377 29 9
3.6611855 0.39309806 -0.16493902 54 32
3.5570984 0.59497076 -0.37463453 25 13
3.67313 0.39371985 -0.1143254 49 40
3.5669303 0.59597081 -0.32519975 33 17
3.694248 0.39596179 -0.06358318 46 48
3.70976 0.39695373 -0.012253581 54 56
3.6996281 0.39587989 0.039231639 49 64
3.6432605 0.49723482 -0.17106806 41 31
3.6502273 0.49818048 -0.12038022 34 39
3.6501615 0.60722035 -0.07611496 20 46
3.5674314 0.48630774 -0.42818138 43 10
3.6705875 0.61060917 -0.025083322 40 54
3.6804435 0.61224437 0.026440639 31 62
3.5928054 0.70607865 -0.18302011 25 29
3.6146009 0.71035868 -0.13247681 56 37
3.5203435 0.79796094 -0.28688997 43 20
3.5531032 0.80539173 -0.2389511 53 24
3.6723957 0.49335799 -0.069814704 25 47
3.5873735 0.58972818 -0.27632797 28 21
3.697787 0.49675041 -0.018702513 37 55
3.6057115 0.59208816 -0.22698469 23 25
3.6079371 0.3766118 -0.36418685 51 14
3.6977758 0.49609187 0.032889422 25 63
3.6183479 0.59415746 -0.17693575 23 30
3.617722 0.37698478 -0.31381142 40 18
3.6402662 0.59709436 -0.12692064 31 38
3.6316719 0.37778324 -0.26485798 50 22
3.6323776 0.70529372 -0.082510091 49 45
3.6399648 0.37863731 -0.21465018 42 26
3.5411534 0.57961255 -0.44559377 29 9
3.6625354 0.38031572 -0.16493902 55 32
3.5542459 0.58174944 -0.37411276 23 13
3.6695106 0.38038561 -0.11416923 42 40
3.568989 0.5835163 -0.32519975 32 17
3.6906345 0.38255367 -0.063496798 42 48
3.7111228 0.38400182 -0.012253581 53 56
3.7109346 0.38398254 0.039338104 43 64
3.6449738 0.48451445 -0.17106806 39 31
3.6519437 0.48543578 -0.12038022 36 39
3.6522591 0.59447515 -0.07611496 20 46
3.5740292 0.47450188 -0.42877775 42 10
3.6726968 0.59779269 -0.025083322 29 54
3.6825585 0.59939343 0.026440639 51 62
3.5952477 0.69353312 -0.18302011 33 29
3.6170583 0.6977371 -0.13247681 42 37
3.527972 0.7867533 -0.28729007 47 20
3.5510232 0.79189748 -0.23862059 41 24
3.5590825 0.79239184 -0.18856491 54 28
3.6740959 0.48053586 -0.069814704 23 47
3.5943329 0.57799166 -0.27671072 27 21
3.6945405 0.48319483 -0.018677205 40 55
3.6126835 0.58028752 -0.22729777 25 25
3.6092298 0.36401549 -0.36418685 48 14
3.6994851 0.48318121 0.032889422 27 63
3.6204 0.58152348 -0.17693575 28 30
3.6190159 0.36435428 -0.31381142 48 18
3.6373937 0.58359432 -0.126747 30 38
3.6379304 0.36559758 -0.26522329 46 22
3.6299067 0.69167507 -0.082397521 52 45
3.6462312 0.36642316 -0.21494585 40 26
3.5480545 0.56803018 -0.44621614 30 9
3.6638408 0.3675288 -0.16493902 43 32
3.5611653 0.57012314 -0.37463453 25 13
3.6757891 0.36806718 -0.1143254 35 40
3.5759215 0.5718388 -0.32565203 27 17
3.6919475 0.3696686 -0.063496798 25 48
3.7124405 0.37104526 -0.012253581 40 56
3.7023015 0.37004218 0.039231639 40 64
3.6466429 0.47178817 -0.17106806 28 31
3.6536162 0.47268516 -0.12038022 28 39
3.6543119 0.58172286 -0.07611496 23 46
3.5756638 0.46202332 -0.42877775 40 10
3.6698227 0.58418506 -0.025049288 41 54
3.6846282 0.58653533 0.026440639 51 62
3.597647 0.68097901 -0.18302011 46 29
3.6194718 0.68510681 -0.13247681 56 37
3.5117171 0.77090997 -0.3358165 55 16
3.5404329 0.77657062 -0.28809032 56 20
3.553766 0.77949721 -0.23862059 52 24
3.5715818 0.78210115 -0.18908653 43 28
3.6757507 0.46770796 -0.069814704 25 47
3.5963285 0.56544161 -0.27671072 34 21
3.6962047 0.47029552 -0.018677205 31 55
3.6146872 0.56767333 -0.22729777 28 25
3.6104784 0.35141471 -0.36418685 40 14
3.701149 0.4702647 0.032889422 26 63
3.6224079 0.56888235 -0.17693575 31 30
3.6202657 0.35171935 -0.31381142 43 18
3.644346 0.57166618 -0.12692064 35 38
3.6342206 0.35242042 -0.26485798 35 22
3.6322992 0.67900014 -0.082397521 56 45
3.6474879 0.35369322 -0.21494585 23 26
3.559819 0.5571717 -0.4474608 32 9
3.6651011 0.35473734 -0.16493902 41 32
3.568047 0.55845571 -0.37515631 29 13
3.6770515 0.35523403 -0.1143254 37 40
3.5828161 0.56011993 -0.32610434 29 17
3.6932154 0.35677904 -0.063496798 17 48
3.7137132 0.35808417 -0.012253581 36 56
3.5235941 0.65678662 -0.47657487 12 8
3.6433113 0.45843619 -0.17083338 28 31
3.6602023 0.46054906 -0.12054512 30 39
3.6612601 0.56972986 -0.076218799 25 46
3.5821805 0.45015436 -0.4293741 32 10
3.6767807 0.57213807 -0.025083322 54 54
3.6866531 0.57366997 0.026440639 43 62
3.6000023 0.66841674 -0.18302011 53 29
3.6810925 0.57214916 0.077921413 12 69
3.6218414 0.67246836 -0.13247681 42 37
3.5143867 0.75864714 -0.3358165 41 16
3.5431221 0.76420748 -0.28809032 55 20
3.5564651 0.76708752 -0.23862059 42 24
3.5694089 0.76857752 -0.18882571 49 28
3.6823232 0.45548451 -0.069909826 25 47
3.5982807 0.55288464 -0.27671072 36 21
3.7027864 0.45800072 -0.018702513 32 55
3.6166465 0.55505228 -0.22729777 38 25
3.6116831 0.33880961 -0.36418685 23 14
3.7027681 0.45734239 0.032889422 29 63
3.6243715 0.55623436 -0.17693575 38 30
3.6214714 0.3390801 -0.31381142 31 18
3.6413794 0.55818653 -0.126747 51 38
3.6304631 0.33927357 -0.26449263 31 22
3.6395643 0.66721755 -0.082510091 56 45
3.6437302 0.34049964 -0.21465018 21 26
3.556838 0.54399431 -0.44683844 36 9
3.6601348 0.67032534 -0.031514667 20 53
3.6613433 0.34148282 -0.16471308 28 32
3.5699749 0.5459975 -0.37515631 32 13
3.6782691 0.34239656 -0.1143254 30 40
3.5847492 0.54761016 -0.32610434 32 17
3.6994164 0.34434345 -0.06358318 20 48
3.7000031 0.34374619 -0.012203836 49 56
3.53074 0.64537334 -0.4772405 43 8
3.6448894 0.44571587 -0.17083338 30 31
3.6617877 0.44776976 -0.12054512 30 39
3.6632264 0.55694622 -0.076218799 29 46
3.5886583 0.43824559 -0.42997047 33 10
3.6787553 0.5593003 -0.025083322 45 54
3.6886332 0.56079769 0.026440639 41 62
3.6023135 0.65584636 -0.18302011 52 29
3.6830673 0.55929631 0.077921413 37 69
3.6290827 0.660716 -0.13265827 55 37
3.5218828 0.74740905 -0.33628619 28 16
3.545768 0.75183505 -0.28809032 45 20
3.5591211 0.75466847 -0.23862059 40 24
3.5769548 0.75714797 -0.18908653 39 28
3.5891008 0.75906628 -0.13890623 43 36
3.6789265 0.4420352 -0.069814704 28 47
3.6051188 0.54105866 -0.27709344 43 21
3.699398 0.44447991 -0.018677205 45 55
3.6185617 0.5424245 -0.22729777 46 25
3.6177986 0.32664263 -0.36469129 23 14
3.7043419 0.44441453 0.032889422 32 63
3.6262908 0.54357958 -0.17693575 54 30
3.6275942 0.32687867 -0.31424546 23 18
3.648248 0.54621011 -0.12692064 56 38
3.6365924 0.32704037 -0.26485798 30 22
3.641871 0.65450907 -0.082510091 39 45
3.6448963 0.32777858 -0.21465018 28 26
3.5538082 0.53084463 -0.44621614 60 9
3.6624522 0.65754497 -0.031514667 51 53
3.6674883 0.32914168 -0.16493902 31 32
3.5718589 0.53353262 -0.37515631 45 13
3.6794419 0.32955492 -0.1143254 23 40
3.5866389 0.53509372 -0.32610434 35 17
3.7005959 0.33142796 -0.06358318 23 48
3.7161224 0.33214903 -0.012253581 42 56
3.5232153 0.63129812 -0.47590926 42 8
3.6563432 0.43416074 -0.17130271 36 31
3.6633282 0.43498501 -0.12054512 33 39
3.6651483 0.54415572 -0.076218799 29 46
3.5901661 0.42571622 -0.42997047 29 10
3.685631 0.54718769 -0.025117356 55 54
3.6905682 0.5479185 0.026440639 41 62
3.6045806 0.64326793 -0.18302011 43 29
3.6849971 0.54643655 0.077921413 48 69
3.6313667 0.64804411 -0.13265827 41 37
3.5244703 0.73511094 -0.33628619 39 16
3.5434921 0.73843592 -0.28769019 31 20
3.561734 0.74224019 -0.23862059 29 24
3.579576 0.74465746 -0.18908653 28 28
3.6015122 0.74856836 -0.13928837 55 36
3.6903787 0.4303416 -0.070004933 29 47
3.6069856 0.52847117 -0.27709344 43 21
3.7009268 0.43156391 -0.018677205 47 55
3.6253717 0.53051037 -0.22761086 38 25
3.6189167 0.3140122 -0.36469129 25 14
3.7058706 0.43148127 0.032889422 41 63
3.6331081 0.53163904 -0.17717913 51 30
3.6287134 0.31421402 -0.31424546 28 18
3.6501327 0.533472 -0.12692064 54 38
3.637712 0.31434432 -0.26485798 33 22
3.6441336 0.6417926 -0.082510091 30 45
3.6509917 0.31547812 -0.21494585 29 26
3.5605488 0.51914984 -0.44683844 58 9
3.6647253 0.64475662 -0.031514667 43 53
3.6636381 0.31591371 -0.16471308 29 32
3.5786202 0.5217765 -0.37567806 57 13
3.67559 0.31628585 -0.11416923 28 40
3.5884848 0.52257073 -0.32610434 46 17
3.70173 0.31850845 -0.06358318 25 48
3.7023127 0.31790712 -0.012203836 37 56
3.5302787 0.6198523 -0.47657487 28 8
3.6578364 0.42139506 -0.17130271 43 31
3.6648245 0.42219493 -0.12054512 43 39
3.6670253 0.53135866 -0.076218799 43 46
3.5866978 0.41261786 -0.4293741 33 10
3.6825702 0.53360426 -0.025083322 40 54
3.6924584 0.53503269 0.026440639 41 62
3.6068041 0.63068169 -0.18302011 39 29
3.686882 0.53357023 0.077921413 49 69
3.6286845 0.63450438 -0.13247681 53 37
3.5024717 0.71840721 -0.38386047 43 12
3.5318913 0.72380382 -0.33675587 23 16
3.5509305 0.72706276 -0.28809032 28 20
3.569191 0.73080444 -0.2389511 25 24
3.5919373 0.73415905 -0.18960814 20 28
3.5992079 0.73499173 -0.13909729 43 36
3.6918583 0.4174571 -0.070004933 31 47
3.608808 0.51587719 -0.27709344 46 21
3.7073793 0.41920081 -0.018702513 42 55
3.6222603 0.51714909 -0.22729777 49 25
3.6199908 0.30137789 -0.36469129 29 14
3.7073541 0.41854271 0.032889422 46 63
3.6349413 0.51895386 -0.17717913 51 30
3.6248236 0.30113825 -0.31381142 31 18
3.6519725 0.5207274 -0.12692064 51 38
3.638787 0.30164438 -0.26485798 36 22
3.6414254 0.62821913 -0.082397521 17 45
3.6520705 0.30273184 -0.21494585 30 26
3.5623395 0.50671804 -0.44683844 60 9
3.6669538 0.63196045 -0.031514667 39 53
3.6647186 0.30312333 -0.16471308 34 32
3.5804198 0.50928164 -0.37567806 60 13
3.676672 0.30345374 -0.11416923 42 40
3.5952175 0.51073956 -0.32655662 51 17
3.7028193 0.30558509 -0.06358318 28 48
3.5373049 0.60836476 -0.4772405 25 8
3.654321 0.40807363 -0.17106806 58 31
3.6662757 0.40939978 -0.12054512 54 39
3.6639078 0.51785773 -0.07611496 32 46
3.5930507 0.40064192 -0.42997047 59 10
3.6893613 0.52144402 -0.025117356 39 54
3.6943035 0.52214038 0.026440639 40 62
3.6139059 0.61893004 -0.18327223 36 29
3.6887221 0.52069736 0.077921413 43 69
3.6358025 0.62267685 -0.13265827 39 37
3.5098307 0.70715946 -0.38439959 32 12
3.5343962 0.71147084 -0.33675587 25 16
3.5485609 0.71367985 -0.28769019 27 20
3.5717201 0.71834117 -0.2389511 24 24
3.5895827 0.72063285 -0.18934733 25 28
3.6066501 0.72340697 -0.13928837 43 36
3.6932931 0.40456763 -0.070004933 36 47
3.6105869 0.50327694 -0.27709344 43 21
3.7088201 0.40625712 -0.018702513 58 55
3.6240437 0.50450188 -0.22729777 49 25
3.6210206 0.28873995 -0.36469129 31 14
3.7087924 0.40559912 0.032889422 51 63
3.6367309 0.50626236 -0.17717913 49 30
3.6308184 0.28887334 -0.31424546 34 18
3.6488178 0.50729048 -0.126747 47 38
3.6447892 0.2893303 -0.26522329 50 22
3.6435962 0.61550438 -0.082397521 17 45
3.6531053 0.28998187 -0.21494585 31 26
3.5640867 0.4942801 -0.44683844 56 9
3.6642072 0.61832535 -0.031471908 47 53
3.6707342 0.2907185 -0.16493902 42 32
3.582176 0.49678054 -0.37567806 52 13
3.6742554 0.61935997 0.019964723 25 61
3.6777086 0.29061791 -0.11416923 57 40
3.5969782 0.49818683 -0.32655662 49 17
3.7088478 0.29304674 -0.063669577 29 48
3.5296328 0.59436923 -0.47590926 29 8
3.6557233 0.39531517 -0.17106806 53 31
3.6676826 0.39659956 -0.12054512 54 39
3.665693 0.50506508 -0.07611496 20 46
3.5944271 0.38809741 -0.42997047 58 10
3.6911588 0.50856256 -0.025117356 39 54
3.6961033 0.50924164 0.026440639 36 62
3.6160443 0.60631138 -0.18327223 36 29
3.6905174 0.50781816 0.077921413 37 69
3.637954 0.60998172 -0.13265827 34 37
3.517154 0.69586909 -0.38493875 29 12
3.5368583 0.69912916 -0.33675587 28 16
3.5510304 0.70128876 -0.28769019 29 20
3.5693111 0.70490181 -0.23862059 20 24
3.5920763 0.70809847 -0.18934733 23 28
3.6140554 0.71177912 -0.13947943 43 36
3.6206458 0.71242177 -0.088662393 37 44
3.6946828 0.39167315 -0.070004933 46 47
3.6172621 0.49133947 -0.27747616 43 21
3.7102156 0.39330843 -0.018702513 43 55
3.630728 0.49251717 -0.22761086 31 25
3.6220064 0.27609846 -0.36469129 33 14
3.7002406 0.39160526 0.03280041 53 63
3.6384759 0.49356475 -0.17717913 44 30
3.6318045 0.27619767 -0.31424546 36 18
3.6505663 0.49455065 -0.126747 38 38
3.6457767 0.27660587 -0.26522329 54 22
3.6457224 0.60278207 -0.082397521 25 45
3.6540952 0.27722842 -0.21494585 31 26
3.5707071 0.48249823 -0.4474608 38 9
3.6712761 0.60634512 -0.031514667 40 53
3.6717265 0.27790347 -0.16493902 53 32
3.5888164 0.48493707 -0.37619987 44 13
3.6813285 0.60734385 0.019991776 54 61
3.6836846 0.27814978 -0.1143254 51 40
3.5986953 0.48562798 -0.32655662 33 17
3.7098482 0.28009865 -0.063669577 29 48
3.5316863 0.58204484 -0.47590926 29 8
3.6570811 0.38255191 -0.17106806 43 31
3.6690447 0.38379455 -0.12054512 43 39
3.6674337 0.49226636 -0.07611496 20 46
3.5957601 0.37554815 -0.42997047 50 10
3.6929116 0.49567491 -0.025117356 39 54
3.6978586 0.49633673 0.026440639 25 62
3.6181386 0.59368533 -0.18327223 26 29
3.6922672 0.49493274 0.077921413 25 69
3.6449919 0.59808749 -0.13283975 28 37
3.5195615 0.68358761 -0.38493875 32 12
3.5441637 0.68772793 -0.33722553 28 16
3.5583491 0.68983835 -0.28809032 31 20
3.5766478 0.69338858 -0.2389511 28 24
3.5945263 0.69555551 -0.18934733 28 28
3.6165175 0.69915938 -0.13947943 43 36
3.6280181 0.70072758 -0.088783681 54 44
3.6860805 0.37776175 -0.069814704 28 47
3.6140125 0.47805825 -0.27709344 42 21
3.7065916 0.37984884 -0.018677205 41 55
3.6324251 0.47984061 -0.22761086 34 25
3.6279099 0.26380926 -0.36519569 38 14
3.7115338 0.3796972 0.032889422 48 63
3.6401768 0.48086113 -0.17717913 36 30
3.6377149 0.2638739 -0.3146795 45 18
3.6522703 0.48180476 -0.126747 38 38
3.6467202 0.26387808 -0.26522329 54 22
3.6478043 0.59005249 -0.082397521 24 45
3.6600189 0.26482669 -0.21524151 46 26
3.5723696 0.47003123 -0.4474608 37 9
3.6733701 0.59352624 -0.031514667 33 53
3.6726742 0.26508504 -0.16493902 63 32
3.5855565 0.4717603 -0.37567806 36 13
3.6784899 0.59369391 0.019964723 42 61
3.6846333 0.2652896 -0.1143254 50 40
3.6003685 0.47306323 -0.32655662 20 17
3.7108033 0.26714715 -0.063669577 37 48
3.5336964 0.56971347 -0.47590926 28 8
3.6583941 0.369784 -0.17106806 41 31
3.670362 0.37098488 -0.12054512 40 39
3.6691298 0.47946164 -0.07611496 23 46
3.597049 0.36299434 -0.42997047 45 10
3.6896617 0.48213556 -0.025083322 38 54
3.6946104 0.48278004 0.026404859 29 62
3.620189 0.58105201 -0.18327223 23 29
3.6939728 0.48204127 0.077921413 34 69
3.6371899 0.58377814 -0.13247681 35 37
3.5268092 0.67222935 -0.38547787 40 12
3.5514326 0.67628425 -0.33769521 30 16
3.5656316 0.67834538 -0.28849044 36 20
3.5741453 0.67996633 -0.23862059 30 24
3.6018379 0.68393624 -0.18960814 31 28
3.6189361 0.68653113 -0.13947943 47 36
3.6304421 0.68805915 -0.088783681 57 44
3.6923521 0.36538139 -0.069909826 25 47
3.615659 0.46544006 -0.27709344 28 21
3.7128708 0.36739689 -0.018702513 41 55
3.634078 0.46715814 -0.22761086 27 25
3.6288085 0.25114387 -0.36519569 52 14
3.7028847 0.3657634 0.03280041 40 63
3.6368794 0.46751705 -0.17693575 28 30
3.6435835 0.2515122 -0.31511351 54 18
3.6588871 0.46968713 -0.12692064 34 38
3.647619 0.251147 -0.26522329 56 22
3.6498415 0.57731563 -0.082397521 27 45
3.6609211 0.25204918 -0.21524151 49 26
3.5838308 0.45881402 -0.44870546 29 9
3.6704812 0.57992059 -0.031471908 40 53
3.6735773 0.25226343 -0.16493902 54 32
3.5970471 0.46050003 -0.37672162 29 13
3.6854789 0.58162874 0.019991776 54 61
3.6855366 0.25242624 -0.1143254 54 40
3.6069374 0.46112204 -0.32700893 29 17
3.5356636 0.55737507 -0.47590926 28 8
3.664634 0.35749286 -0.17130271 39 31
3.6716347 0.35817066 -0.12054512 39 39
3.6707809 0.46665105 -0.07611496 23 46
3.598294 0.35043606 -0.42997047 43 10
3.6913221 0.46925327 -0.025083322 30 54
3.6962731 0.46988049 0.026404859 23 62
3.6271284 0.56918508 -0.18352431 29 29
3.6906736 0.46851662 0.077815831 23 69
3.6441422 0.57185239 -0.13265827 51 37
3.5347447 0.87855035 -0.25154075 84 23
3.5389061 0.66174322 -0.38655615 53 12
3.553772 0.66388327 -0.33769521 30 16
3.5679779 0.66589487 -0.28849044 40 20
3.5814016 0.66840219 -0.2389511 39 24
3.5992947 0.67044425 -0.18934733 38 28
3.6213105 0.67389452 -0.13947943 49 36
3.6328218 0.67538238 -0.088783681 51 44
3.6936052 0.35249045 -0.069909826 20 47
3.6172619 0.45281625 -0.27709344 41 21
3.7141306 0.35443431 -0.018702513 40 55
3.6307344 0.45385316 -0.22729777 25 25
3.6246994 0.23815443 -0.36469129 52 14
3.6384895 0.45481911 -0.17693575 25 30
3.6394684 0.23847164 -0.3146795 40 18
3.6605041 0.45691237 -0.12692064 30 38
3.65345 0.23873299 -0.26558861 47 22
3.656775 0.56533486 -0.082510091 31 45
3.6617785 0.23926866 -0.21524151 40 26
3.5854104 0.44630134 -0.44870546 25 9
3.672483 0.5671047 -0.031471908 57 53
3.6744354 0.2394387 -0.16493902 45 32
3.5986323 0.44794121 -0.37672162 25 13
3.6874866 0.56876045 0.019991776 56 61
3.6714332 0.2386027 -0.11385687 55 40
3.6085253 0.44852865 -0.32700893 28 17
3.5522814 0.54729152 -0.47790608 29 8
3.6658592 0.3446987 -0.17130271 33 31
3.6778381 0.34581628 -0.12071002 33 39
3.6773491 0.45444575 -0.076218799 20 46
3.5994956 0.33787355 -0.42997047 42 10
3.6929376 0.45636532 -0.025083322 36 54
3.7028534 0.45758632 0.026440639 25 62
3.6290932 0.55652058 -0.18352431 37 29
3.6922865 0.4556309 0.077815831 23 69
3.6461158 0.55912846 -0.13265827 53 37
3.5281024 0.86382693 -0.25084493 65 23
3.5411947 0.64938611 -0.38655615 58 12
3.5560675 0.65147424 -0.33769521 31 16
3.5702806 0.65343618 -0.28849044 54 20
3.5837131 0.65589666 -0.2389511 49 24
3.6065247 0.6587742 -0.18960814 49 28
3.628556 0.6621474 -0.13967051 43 36
3.6400743 0.66359448 -0.088904969 43 44
3.6606247 0.66734397 -0.0373028 37 52
3.595474 0.77572399 -0.14564523 48 35
3.6997914 0.34004912 -0.070004933 23 47
3.6188204 0.44018686 -0.27709344 31 21
3.7053869 0.34055933 -0.018651897 39 55
3.6372507 0.44177631 -0.22761086 28 25
3.6255083 0.22550043 -0.36469129 42 14
3.6450124 0.44271559 -0.17717913 30 30
3.6353068 0.22546285 -0.31424546 48 18
3.662077 0.44413206 -0.12692064 32 38
3.6492834 0.22567593 -0.26522329 40 22
3.6587262 0.55256689 -0.082510091 28 45
3.6625915 0.22648522 -0.21524151 29 26
3.5869465 0.4337832 -0.44870546 28 9
3.679384 0.55502701 -0.031514667 43 53
3.6652772 0.22600643 -0.16448712 44 32
3.600174 0.43537688 -0.37672162 29 13
3.6943934 0.55662948 0.020018827 45 61
3.6921978 0.226992 -0.11448159 53 40
3.610069 0.43592981 -0.32700893 29 17
3.5492697 0.53415161 -0.4772405 30 8
3.662066 0.3314538 -0.17106806 28 31
3.6740458 0.33252928 -0.12054512 28 39
3.6789129 0.44160664 -0.076218799 25 46
3.6055975 0.32574993 -0.43056679 32 10
3.6945081 0.44347179 -0.025083322 49 54
3.7044282 0.44465819 0.026440639 30 62
3.626075 0.54311037 -0.18327223 52 29
3.6789634 0.44096139 0.077499069 25 69
3.6480453 0.54639775 -0.13265827 42 37
3.5407922 0.85385197 -0.25154075 66 23
3.5385478 0.63614082 -0.38601699 43 12
3.5534203 0.63817662 -0.33722553 39 16
3.577445 0.64185053 -0.28889057 50 20
3.5908909 0.644265 -0.23928159 52 24
3.6088023 0.64618111 -0.18960814 49 28
3.6308453 0.6494773 -0.13967051 43 36
3.6423686 0.65088427 -0.088904969 39 44
3.6580102 0.65368176 -0.037252184 51 52
3.5932729 0.76212996 -0.14544544 45 35
3.7009559 0.32713237 -0.070004933 25 47
3.6203349 0.42755216 -0.27709344 36 21
3.7165146 0.32849634 -0.018702513 30 55
3.6387706 0.42907724 -0.22761086 29 25
3.6262734 0.21284367 -0.36469129 41 14
3.6465356 0.42998943 -0.17717913 33 30
3.6410446 0.21305776 -0.3146795 37 18
3.663605 0.43134633 -0.12692064 44 38
3.650049 0.21293618 -0.26522329 35 22
3.6606326 0.53979218 -0.082510091 25 45
3.6633596 0.21369901 -0.21524151 29 26
3.5835114 0.42068356 -0.44808313 31 9
3.6862457 0.54290795 -0.03155743 56 53
3.666044 0.21321087 -0.16448712 33 32
3.6016719 0.42280731 -0.37672162 31 13
3.6913674 0.54300332 0.019991776 44 61
3.6779988 0.21324985 -0.11401304 48 40
3.6115685 0.42332566 -0.32700893 31 17
3.5511127 0.52175909 -0.4772405 31 8
3.6632004 0.31866878 -0.17106806 29 31
3.6751838 0.31970245 -0.12054512 29 39
3.6853976 0.42933846 -0.076322637 28 46
3.6116588 0.31358784 -0.43116316 31 10
3.701 0.43114921 -0.025117356 53 54
3.7059577 0.43172461 0.026440639 33 62
3.63289 0.53117138 -0.18352431 54 29
3.6904116 0.42926756 0.077710241 28 69
3.6499307 0.53366035 -0.13265827 55 37
3.5388992 0.84033114 -0.25119284 62 23
3.5456419 0.62464827 -0.38655615 48 12
3.5605288 0.62663251 -0.33769521 36 16
3.5845726 0.6302228 -0.2892907 50 20
3.593118 0.6317265 -0.23928159 49 24
3.6110361 0.63358003 -0.18960814 49 28
3.6330903 0.63679934 -0.13967051 43 36
3.6446185 0.63816607 -0.088904969 28 44
3.4923899 0.82538801 -0.29769194 63 19
3.6651945 0.64177197 -0.0373028 40 52
3.6056919 0.75162578 -0.14584501 36 35
3.702075 0.31421167 -0.070004933 25 47
3.6267586 0.41547748 -0.27747616 40 21
3.707674 0.31468281 -0.018651897 38 55
3.6402462 0.41637293 -0.22761086 42 25
3.6269944 0.20018432 -0.36469129 31 14
3.6480145 0.41725802 -0.17717913 42 30
3.6367924 0.20007834 -0.31424546 25 18
3.6650882 0.41855529 -0.12692064 55 38
3.6507702 0.20019384 -0.26522329 33 22
3.6624947 0.52701092 -0.082510091 42 45
3.6640835 0.2009102 -0.21524151 29 26
3.5849581 0.40817219 -0.44808313 43 9
3.6831694 0.52932674 -0.031514667 56 53
3.661778 0.20014516 -0.16426119 34 32
3.603126 0.41023254 -0.37672162 37 13
3.6981895 0.53082442 0.020018827 42 61
3.6130242 0.41071635 -0.32700893 42 17
3.5578177 0.51006275 -0.47790608 34 8
3.659313 0.30546802 -0.17083338 31 31
3.6712973 0.30645964 -0.12038022 33 39
3.6868739 0.41647139 -0.076322637 29 46
3.607784 0.3005704 -0.43056679 32 10
3.7024825 0.4182277 -0.025117356 57 54
3.7024734 0.41822669 0.026404859 47 62
3.634722 0.51848698 -0.18352431 47 29
3.6769845 0.41470873 0.077393487 40 69
3.6517713 0.52091646 -0.13265827 41 37
3.5369549 0.82683402 -0.25084493 45 23
3.5478008 0.61226785 -0.38655615 43 12
3.554749 0.83035326 -0.20144351 73 27
3.5626945 0.61420017 -0.33769521 47 16
3.5867505 0.61770642 -0.2892907 49 20
3.6002178 0.62002778 -0.2396121 40 24
3.6132252 0.62097132 -0.18960814 37 28
3.6352911 0.62411362 -0.13967051 42 36
3.6468239 0.62544006 -0.088904969 20 44
3.5098062 0.81659031 -0.29894453 68 19
3.6674125 0.62897414 -0.0373028 39 52
3.6034 0.73803043 -0.14564523 51 35
3.6197329 0.74138308 -0.095169559 38 43
3.6981666 0.30088529 -0.069909826 28 47
3.6281869 0.40281519 -0.27747616 47 21
3.6416774 0.40366358 -0.22761086 49 25
3.6326389 0.1877742 -0.36519569 31 14
3.6494486 0.40452152 -0.17717913 54 30
3.6424432 0.18763347 -0.3146795 29 18
3.6665268 0.40575922 -0.12692064 58 38
3.6514466 0.18744904 -0.26522329 33 22
3.6593614 0.51352918 -0.082397521 28 45
3.6647625 0.18811893 -0.21524151 30 26
3.5863609 0.39565587 -0.44808313 43 9
3.6849945 0.5164668 -0.031514667 54 53
3.6624544 0.18736197 -0.16426119 30 32
3.6045358 0.39765278 -0.37672162 54 13
3.7000198 0.51791203 0.020018827 41 61
3.6144359 0.39810205 -0.32700893 36 17
3.5595765 0.49764058 -0.47790608 37 8
3.6603568 0.29269275 -0.17083338 39 31
3.6773262 0.29403722 -0.12054512 42 39
3.6883051 0.40359926 -0.076322637 29 46
3.61376 0.28836626 -0.43116316 33 10
3.7039196 0.40530103 -0.025117356 41 54
3.7039108 0.40530008 0.026404859 51 62
3.6315637 0.50510907 -0.18327223 43 29
3.6535671 0.50816625 -0.13265827 55 37
3.5398195 0.81448275 -0.25084493 64 23
3.5499163 0.59987998 -0.38655615 36 12
3.5624905 0.81906199 -0.20172176 67 27
3.5648167 0.60176027 -0.33769521 20 16
3.5790558 0.60352361 -0.28849044 31 20
3.5974405 0.60662657 -0.23928159 28 24
3.6202948 0.60918432 -0.18986896 20 28
3.6374471 0.61142027 -0.13967051 41 36
3.6440554 0.61187804 -0.088783681 14 44
3.5029233 0.80210245 -0.29810947 67 19
3.6646547 0.61533999 -0.037252184 41 52
3.6728313 0.62792474 0.013524526 42 60
3.6108515 0.72643518 -0.14584501 49 35
3.6173992 0.72775537 -0.095039554 47 43
3.6991942 0.28797442 -0.069909826 30 47
3.6295707 0.39014798 -0.27747616 44 21
3.6430643 0.39094931 -0.22761086 49 25
3.6382413 0.17532711 -0.36570013 34 14
3.6508384 0.39178011 -0.17717913 52 30
3.6480515 0.1751516 -0.31511351 31 18
3.6679208 0.39295819 -0.12692064 55 38
3.6520786 0.17470197 -0.26522329 34 22
3.6660845 0.50142926 -0.082510091 33 45
3.6653967 0.17532538 -0.21524151 30 26
3.5926533 0.38365933 -0.44870546 50 9
3.6917288 0.50427663 -0.03155743 53 53
3.6531072 0.17411111 -0.1638093 29 32
3.605902 0.38506818 -0.37672162 58 13
3.6968513 0.5043183 0.019991776 35 61
3.6158035 0.38548288 -0.32700893 49 17
3.5612919 0.48521227 -0.47790608 46 8
3.6663365 0.28029105 -0.17106806 44 31
3.6783302 0.28119919 -0.12054512 55 39
3.68472 0.39019796 -0.076218799 39 46
3.6147444 0.2757501 -0.43116316 41 10
3.7053118 0.39236951 -0.025117356 40 54
3.7102754 0.39289296 0.026440639 51 62
3.638253 0.49309942 -0.18352431 32 29
3.6553187 0.49540982 -0.13265827 40 37
3.5351167 0.5846917 -0.52061301 43 7
3.5475047 0.80322647 -0.25119284 66 23
3.5568926 0.58829665 -0.38709524 32 12
3.5604594 0.80551642 -0.20144351 49 27
3.5619845 0.58850092 -0.33722553 31 16
3.5811408 0.59102672 -0.28849044 31 20
3.5995362 0.59406549 -0.23928159 26 24
3.6223993 0.59654337 -0.18986896 25 28
3.6444895 0.59953123 -0.13986157 36 36
3.6461692 0.59915417 -0.088783681 20 44
3.5202816 0.7931664 -0.29936206 95 19
3.6717141 0.60335565 -0.0373028 38 52
3.6750007 0.61510038 0.013524526 56 60
3.6133652 0.71382654 -0.14584501 44 35
3.6297235 0.71706557 -0.095299579 66 43
3.7051625 0.27542707 -0.070004933 30 47
3.6309106 0.37747604 -0.27747616 43 21
3.6444068 0.37823024 -0.22761086 53 25
3.6338615 0.16240923 -0.36519569 34 14
3.6521838 0.37903392 -0.17717913 49 30
3.6436644 0.16220006 -0.3146795 35 18
3.6692703 0.38015237 -0.12692064 47 38
3.6576483 0.16216855 -0.26558861 40 22
3.6678123 0.48862913 -0.082510091 28 45
3.6709733 0.16274567 -0.21553718 29 26
3.5939708 0.37111631 -0.44870546 58 9
3.6885104 0.49072835 -0.031514667 40 53
3.653693 0.16135831 -0.1638093 30 32
3.6072242 0.3724789 -0.37672162 57 13
3.7035456 0.49206862 0.020018827 28 61
3.6171272 0.37285903 -0.32700893 50 17
3.5678766 0.47342923 -0.47857171 30 8
3.6672926 0.26749143 -0.17106806 59 31
3.6792893 0.26835769 -0.12054512 56 39
3.6860597 0.37733352 -0.076218799 20 46
3.6156852 0.26313061 -0.43116316 51 10
3.701685 0.37892616 -0.025083322 39 54
3.7016759 0.37892526 0.02636908 43 62
3.6399522 0.48039654 -0.18352431 36 29
3.652072 0.48199427 -0.13247681 39 37
3.5517862 0.57472104 -0.52279127 28 7
3.550287 0.79083848 -0.25119284 57 23
3.5589247 0.57587719 -0.38709524 26 12
3.5681217 0.79417133 -0.20172176 71 27
3.5640171 0.57606375 -0.33722553 17 16
3.5831819 0.57852262 -0.28849044 29 20
3.606513 0.58229309 -0.2396121 26 24
3.6244595 0.58389521 -0.18986896 20 28
3.6416271 0.58601147 -0.13967051 33 36
3.4941857 0.77509797 -0.34677723 75 15
3.6482384 0.58642304 -0.088783681 23 44
3.5278924 0.7819553 -0.29977956 68 19
3.6737978 0.59053534 -0.0373028 30 52
3.6820595 0.60307735 0.013542851 44 60
3.615835 0.70120913 -0.14584501 41 35
3.6272979 0.70343733 -0.095169559 47 43
3.6961274 0.26179278 -0.069814704 37 47
3.6322062 0.3647995 -0.27747616 44 21
3.6506703 0.3660022 -0.22792393 39 25
3.6344061 0.14972368 -0.36519569 36 14
3.6534846 0.36628312 -0.17717913 44 30
3.6491854 0.14967933 -0.31511351 37 18
3.6705749 0.36734191 -0.12692064 38 38
3.6581922 0.1494 -0.26558861 57 22
3.674453 0.47646517 -0.082622655 27 45
3.671519 0.1499306 -0.21553718 31 26
3.5903075 0.3580786 -0.44808313 44 9
3.6902008 0.47785005 -0.031514667 29 53
3.6085024 0.35988507 -0.37672162 46 13
3.7002819 0.47849739 0.019991776 29 61
3.6233616 0.36072174 -0.32746121 40 17
3.5695074 0.4609721 -0.47857171 36 8
3.6731868 0.2550309 -0.17130271 54 31
3.6851892 0.25585547 -0.12071002 46 39
3.6873543 0.36446443 -0.076218799 17 46
3.6165814 0.25050792 -0.43116316 54 10
3.7079608 0.36649218 -0.025117356 39 54
3.7079518 0.36649129 0.026404859 40 62
3.6465602 0.4683232 -0.18377641 20 29
3.6586883 0.469879 -0.13265827 29 37
3.52934 0.55845004 -0.51916075 29 7
3.5530257 0.77844089 -0.25119284 53 23
3.5609131 0.56345075 -0.38709524 27 12
3.5611203 0.77956909 -0.20116529 53 27
3.5709226 0.56439734 -0.33769521 23 16
3.5782945 0.78268749 -0.15137613 84 34
3.5901022 0.56678945 -0.28889057 29 20
3.6085236 0.56970054 -0.2396121 23 24
3.6264758 0.57123995 -0.18986896 28 28
3.648586 0.57407349 -0.13986157 36 36
3.5017309 0.7639606 -0.34726426 35 15
3.6502631 0.57368475 -0.088783681 23 44
3.5354679 0.77070075 -0.30019709 57 19
3.6758368 0.57770777 -0.0373028 37 52
3.6841424 0.59022093 0.013542851 48 60
3.6934721 0.59171695 0.065307707 17 68
3.6231685 0.68951952 -0.14604481 49 35
3.6297312 0.6907714 -0.095169559 52 43
3.6384194 0.35259721 -0.27785888 35 21
3.6519256 0.35325676 -0.22792393 29 25
3.6398778 0.13721862 -0.36570013 37 14
3.654741 0.35352784 -0.17717913 40 30
3.6496859 0.13694039 -0.31511351 39 18
3.6768086 0.35500503 -0.12709425 38 38
3.6586914 0.13662961 -0.26558861 57 22
3.6711342 0.46301129 -0.082510091 23 45
3.67202 0.13711369 -0.21553718 35 26
3.5964739 0.34601679 -0.44870546 38 9
3.6918464 0.46496591 -0.031514667 37 53
3.6097364 0.34728682 -0.37672162 44 13
3.7019298 0.46557805 0.019991776 29 61
3.6245987 0.34807163 -0.32746121 28 17
3.5760117 0.44912615 -0.47923729 28 8
3.6740546 0.24220753 -0.17130271 43 31
3.6910467 0.24331528 -0.12087493 54 39
3.6886044 0.35159096 -0.076218799 20 46
3.6124802 0.23756008 -0.43056679 54 10
3.7092178 0.35354677 -0.025117356 38 54
3.638262 0.4543553 -0.18327223 23 29
3.6603062 0.45710492 -0.13265827 33 37
3.555712 0.54991114 -0.52279127 33 7
3.6637497 0.67740065 -0.044437271 40 51
3.5557215 0.76603377 -0.25119284 45 23
3.5628583 0.55101746 -0.38709524 30 12
3.5686996 0.76818788 -0.20144351 31 27
3.5777905 0.55268967 -0.3381649 25 16
3.5907712 0.77230006 -0.15179314 66 34
3.5920591 0.55425411 -0.28889057 33 20
3.6104906 0.55710083 -0.2396121 29 24
3.6284475 0.55857772 -0.18986896 29 28
3.6505678 0.56133407 -0.13986157 42 36
3.5092413 0.75278002 -0.34775132 28 15
3.6571836 0.56169897 -0.088904969 25 44
3.5381367 0.75835496 -0.30019709 46 19
3.6778309 0.56487316 -0.0373028 47 52
3.6861799 0.57735723 0.013542851 41 60
3.6806982 0.57649785 0.0650433 47 68
3.6255531 0.67686808 -0.14604481 49 35
3.6321204 0.67809707 -0.095169559 54 43
3.6346643 0.33943325 -0.27747616 28 21
3.6431987 0.3395851 -0.22729777 25 25
3.6403346 0.12451224 -0.36570013 44 14
3.6559527 0.34076828 -0.17717913 20 30
3.6551201 0.12436406 -0.31554759 49 18
3.6730499 0.34170771 -0.12692064 41 38
3.6641297 0.12402115 -0.26595393 54 22
3.6727283 0.45019379 -0.082510091 25 45
3.6724761 0.12429511 -0.21553718 36 26
3.6025999 0.33391634 -0.4493278 31 9
3.6934469 0.45207614 -0.031514667 36 53
3.6158788 0.33514115 -0.3772434 32 13
3.7035325 0.45265308 0.019991776 30 61
3.6257918 0.3354173 -0.32746121 34 17
3.5775573 0.43664083 -0.47923729 20 8
3.6698925 0.22907369 -0.17106806 42 31
3.6818976 0.22981426 -0.12054512 41 39
3.6898091 0.3387132 -0.076218799 23 46
3.6182423 0.22525354 -0.43116316 48 10
3.7054503 0.34014216 -0.025083322 31 54
3.6398261 0.44165263 -0.18327223 28 29
3.6618795 0.4443253 -0.13265827 45 37
3.5331526 0.5337972 -0.51916075 25 7
3.6611729 0.66371375 -0.044377059 43 51
3.5583737 0.75361729 -0.25119284 39 23
3.569675 0.53932071 -0.3876344 35 12
3.5713594 0.7557261 -0.20144351 34 27
3.5846205 0.54094106 -0.33863458 29 16
3.5836716 0.75768739 -0.15137613 50 34
3.5989001 0.54245567 -0.2892907 37 20
3.6124132 0.54449451 -0.2396121 33 24
3.6303751 0.54590869 -0.18986896 33 28
3.6475642 0.54784495 -0.13967051 52 36
3.5069792 0.73949546 -0.34726426 33 15
3.659122 0.54892957 -0.088904969 29 44
3.5407622 0.74599993 -0.30019709 41 19
3.6797802 0.5520317 -0.0373028 42 52
3.6931152 0.56524366 0.013561177 41 60
3.6975131 0.56591743 0.065307707 54 68
3.6328077 0.66511023 -0.14624459 51 35
3.6393816 0.66631681 -0.095299579 52 43
3.6358271 0.32674384 -0.27747616 30 21
3.6493325 0.32730949 -0.22761086 25 25
3.6457195 0.11195192 -0.36620453 60 14
3.65712 0.32800451 -0.17717913 23 30
3.6555319 0.11160456 -0.31554759 54 18
3.6742203 0.3288843 -0.12692064 30 38
3.6645405 0.11123019 -0.26595393 62 22
3.6742773 0.43737087 -0.082510091 30 45
3.6778767 0.11162135 -0.21583283 47 26
3.6086853 0.32177731 -0.44995016 29 9
3.6900375 0.43859145 -0.031471908 52 53
3.6219795 0.32295677 -0.37776518 29 13
3.7050898 0.43972257 0.019991776 34 61
3.6269405 0.32275885 -0.32746121 25 17
3.5741389 0.42356771 -0.47857171 25 8
3.6656837 0.21597184 -0.17083338 37 31
3.697644 0.21783146 -0.12103983 40 39
3.690969 0.32583129 -0.076218799 25 46
3.6140506 0.21233462 -0.43056679 44 10
3.7115955 0.32764316 -0.025117356 25 54
3.6463046 0.42952806 -0.18352431 31 29
3.663408 0.43154028 -0.13265827 57 37
3.5349944 0.52146089 -0.51916075 55 7
3.6683896 0.65180653 -0.044437271 42 51
3.5512178 0.73915166 -0.25049701 32 23
3.5715358 0.5268569 -0.3876344 55 12
3.5690885 0.74223512 -0.20116529 35 27
3.5864866 0.52842516 -0.33863458 31 16
3.600966 0.74823308 -0.15200165 50 34
3.6057026 0.53061622 -0.28969082 48 20
3.6192276 0.53260863 -0.2399426 48 24
3.6322587 0.53323299 -0.18986896 43 28
3.6543977 0.53583479 -0.13986157 56 36
3.5192828 0.72927606 -0.34823838 31 15
3.661016 0.53615355 -0.088904969 28 44
3.5335879 0.73160821 -0.29936206 32 19
3.6816847 0.53918356 -0.0373028 44 52
3.6950655 0.55234891 0.013561177 41 60
3.6895776 0.55152774 0.065131433 49 68
3.6301904 0.6515407 -0.14604481 48 35
3.6416855 0.65360898 -0.095299579 29 43
3.6419125 0.31447715 -0.27785888 31 21
3.6554246 0.3149952 -0.22792393 29 25
3.6411154 0.099095084 -0.36570013 50 14
3.6582427 0.31523681 -0.17717913 28 30
3.6509197 0.098714158 -0.31511351 54 18
3.670367 0.31563088 -0.126747 33 38
3.6649063 0.098437876 -0.26595393 41 22
3.6807473 0.42511538 -0.082622655 28 45
3.6782439 0.098782472 -0.21583283 41 26
3.6048431 0.30875751 -0.4493278 31 9
3.7014802 0.42685229 -0.03155743 49 53
3.6230848 0.31031173 -0.37776518 30 13
3.7066021 0.42678669 0.019991776 48 61
3.6280448 0.3100965 -0.32746121 31 17
3.5755956 0.41108906 -0.47857171 32 8
3.6664155 0.20317492 -0.17083338 31 31
3.6884024 0.20437723 -0.12071002 39 39
3.6920838 0.3129454 -0.076218799 23 46
