# .PCD v0.7 - Point Cloud Data file format
VERSION 0.7
FIELDS x y z intensity ring
SIZE 4 4 4 4 2
TYPE F F F F U
COUNT 1 1 1 1 1
WIDTH 1229
HEIGHT 1
VIEWPOINT 0 0 0 1 0 0 0
POINTS 1229
DATA ascii
3.8750136 0.66400039 -0.18983477 20 30
3.8724611 0.43061015 -0.33638152 40 18
3.9019964 0.66791171 -0.13629644 54 38
3.8866949 0.43149242 -0.28385469 53 22
3.9001815 0.4329766 -0.23032025 38 26
3.927902 0.43533319 -0.17713998 42 32
3.8050044 0.64998311 -0.40124506 54 13
3.935025 0.43542072 -0.12260307 40 40
3.8299086 0.6535387 -0.34962365 25 17
3.956224 0.43774617 -0.068161868 29 48
3.9817157 0.43983909 -0.013165552 41 56
3.9864836 0.44036123 0.042319071 20 64
3.9086256 0.54715818 -0.18373975 35 31
3.9906332 0.43940595 0.097934499 43 70
3.9256372 0.54952782 -0.12961486 37 39
3.8213942 0.53432727 -0.45919174 28 10
3.9430518 0.54353666 -0.075046055 17 47
3.8557184 0.64754903 -0.29737791 32 21
3.9684768 0.54702395 -0.020094447 39 55
3.8693972 0.64914626 -0.24389113 24 25
3.8539166 0.41563413 -0.38940758 35 14
3.8773074 0.65046996 -0.18983477 23 30
3.8739407 0.41709015 -0.33638152 23 18
3.904304 0.65428716 -0.13629644 57 38
3.8881774 0.41792268 -0.28385469 50 22
3.9066322 0.41988841 -0.2306159 17 26
3.9293973 0.42161965 -0.17713998 38 32
3.8072503 0.63669717 -0.40124506 36 13
3.9365208 0.42168227 -0.12260307 43 40
3.8321664 0.64016581 -0.34962365 25 17
3.9577279 0.42393368 -0.068161868 20 48
3.9782546 0.42541063 -0.01314897 43 56
3.9879963 0.42644313 0.042319071 20 64
3.910512 0.53351122 -0.18373975 23 31
3.9921429 0.42547333 0.097934499 42 70
3.9374356 0.53716576 -0.12994467 29 39
3.8232358 0.52098483 -0.45919174 28 10
3.9449246 0.52976954 -0.075046055 20 47
3.857955 0.63408613 -0.29737791 30 21
3.9654057 0.53250593 -0.020069137 48 55
3.8716395 0.63563561 -0.24389113 25 25
3.8553443 0.40217888 -0.38940758 33 14
3.8844831 0.63773882 -0.19007815 25 30
3.8704181 0.40305385 -0.33594748 23 18
3.906564 0.64065462 -0.13629644 53 38
3.8896127 0.40434787 -0.28385469 32 22
3.9031096 0.40573788 -0.23032025 20 26
3.9258764 0.40739009 -0.17691405 29 32
3.8143568 0.62420446 -0.40176684 48 13
3.932997 0.40742844 -0.12244688 35 40
3.8343778 0.62678522 -0.34962365 25 17
3.9591835 0.41011608 -0.068161868 24 48
3.9797151 0.41152132 -0.01314897 43 56
3.9894605 0.41251981 0.042319071 23 64
3.9123504 0.5198577 -0.18373975 28 31
3.9936037 0.41153559 0.097934499 42 70
3.9343324 0.52276343 -0.12977977 34 39
3.928582 0.63932878 -0.081930012 36 46
3.8250313 0.50763607 -0.45919174 30 10
3.8600304 0.74457014 -0.19663319 53 29
3.9467502 0.51599592 -0.075046055 23 47
3.8552225 0.61982614 -0.29699516 37 21
3.972199 0.51930565 -0.020094447 43 55
3.8738348 0.62211722 -0.24389113 31 25
3.8567247 0.38871878 -0.38940758 28 14
3.9771419 0.51924258 0.035381719 58 63
3.8866854 0.62417555 -0.19007815 31 30
3.8767583 0.39003497 -0.33638152 28 18
3.9087765 0.62701428 -0.13629644 50 38
3.8959622 0.39126164 -0.28421998 26 22
3.9094684 0.39260498 -0.2306159 25 26
3.9272747 0.39368373 -0.17691405 23 32
3.8165126 0.6108861 -0.40176684 59 13
3.9393687 0.3941901 -0.12260307 37 40
3.8365424 0.61339694 -0.34962365 40 17
3.9605911 0.39629343 -0.068161868 23 48
3.9861033 0.3981193 -0.013165552 29 56
3.9908762 0.39859149 0.042319071 23 64
3.9141412 0.50619793 -0.18373975 30 31
3.9751184 0.39563128 0.097442359 28 70
3.9311769 0.50838929 -0.12961486 31 39
3.9258523 0.62482786 -0.081826173 50 46
3.8317037 0.49491367 -0.45978811 32 10
3.862606 0.7310915 -0.19663319 40 29
3.9485271 0.50221604 -0.075046055 28 47
3.8573625 0.6063652 -0.29699516 42 21
3.9739873 0.50543696 -0.020094447 45 55
3.8809128 0.6093632 -0.24420421 42 25
3.8679614 0.37620753 -0.39041638 27 14
3.9739697 0.50472999 0.035337213 55 63
3.8839066 0.60983199 -0.18983477 38 30
3.8830543 0.37697673 -0.33681557 25 18
3.9109414 0.61336631 -0.13629644 47 38
3.8923407 0.37718365 -0.28385469 29 22
3.9058466 0.37847936 -0.23032025 28 26
3.9335968 0.38044873 -0.17713998 25 32
3.8186216 0.59756029 -0.40176684 55 13
3.9407206 0.38043675 -0.12260307 28 40
3.8386602 0.60000116 -0.34962365 47 17
3.9669266 0.38294163 -0.068248257 25 48
3.9824913 0.38372788 -0.01314897 34 56
3.9922433 0.38465831 0.042319071 23 64
3.9158843 0.49253193 -0.18373975 35 31
4.016284 0.38553718 0.098426633 23 70
3.9329274 0.4946638 -0.12961486 40 39
3.9329495 0.61188674 -0.081930012 49 46
3.8284817 0.48092017 -0.45919174 36 10
3.8651347 0.71760404 -0.19663319 40 29
3.9552178 0.48904014 -0.075141169 30 47
3.8594558 0.59289676 -0.29699516 46 21
3.9707649 0.49095184 -0.020069137 42 55
3.8780835 0.59505779 -0.24389113 51 25
3.8692508 0.3627035 -0.39041638 30 14
3.98067 0.4914645 0.035381719 48 63
3.8909483 0.59702641 -0.19007815 50 30
3.8843462 0.36342004 -0.33681557 25 18
3.9179983 0.60046577 -0.13647006 48 38
3.8936334 0.36359453 -0.28385469 36 22
3.9121139 0.36530241 -0.2306159 25 26
3.9299273 0.3662568 -0.17691405 32 32
3.8256004 0.58497679 -0.40228862 54 13
3.9420247 0.36667874 -0.12260307 30 40
3.8456538 0.58734781 -0.35007593 49 17
3.9632611 0.36863387 -0.068161868 28 48
3.9838061 0.36982405 -0.01314897 43 56
3.9935615 0.37072045 0.042319071 28 64
3.9175797 0.47885993 -0.18373975 49 31
3.9777834 0.36787033 0.097442359 37 70
3.9346299 0.48093233 -0.12961486 49 39
3.9301188 0.5974052 -0.081826173 43 46
3.8301375 0.46755335 -0.45919174 38 10
3.8676159 0.70410788 -0.19663319 39 29
3.8896322 0.70811284 -0.14227645 31 37
3.9569008 0.47523087 -0.075141169 32 47
3.8615017 0.57942116 -0.29699516 51 21
3.9724543 0.4770883 -0.020069137 43 55
3.880137 0.58151716 -0.24389113 49 25
3.8704932 0.34919509 -0.39041638 37 14
3.9823611 0.47756636 0.035381719 41 63
3.8930085 0.58344084 -0.19007815 49 30
3.8855913 0.34985891 -0.33681557 29 18
3.9200702 0.58678573 -0.13647006 47 38
3.8998458 0.35044253 -0.28421998 41 22
3.9133651 0.35164437 -0.2306159 29 26
3.8187866 0.5703041 -0.47982237 51 9
3.9311819 0.35253659 -0.17691405 38 32
3.8276191 0.57161939 -0.40228862 44 13
3.9482584 0.35335702 -0.12275925 38 40
3.8427553 0.57318783 -0.34962365 45 17
3.9695034 0.35523814 -0.068248257 31 48
3.9800923 0.35547557 -0.013132389 46 56
3.989851 0.35633793 0.04226584 29 64
3.9192271 0.4651821 -0.18373975 53 31
3.9362848 0.46719494 -0.12961486 54 39
3.9321802 0.58368289 -0.081826173 36 46
3.8317459 0.45418087 -0.45919174 54 10
3.9576604 0.58745462 -0.026989246 34 54
3.87005 0.69060308 -0.19663319 41 29
3.8920798 0.6945312 -0.14227645 52 37
3.8157015 0.79520428 -0.25580657 41 24
3.9535697 0.46084043 -0.075046055 42 47
3.8635011 0.56593847 -0.29699516 46 21
3.9790623 0.46379453 -0.020094447 43 55
3.8772054 0.567249 -0.24357805 42 25
3.8667326 0.33525753 -0.38991198 51 14
3.9840038 0.46366242 0.035381719 40 63
3.8950217 0.56984812 -0.19007815 40 30
3.8867891 0.33629355 -0.33681557 32 18
3.9220948 0.57309854 -0.13647006 46 38
3.9010456 0.3368274 -0.28421998 53 22
3.9145689 0.337982 -0.2306159 32 26
3.8256631 0.55768412 -0.48044467 29 9
3.9323885 0.33881205 -0.17691405 50 32
3.8345115 0.55897021 -0.40281036 44 13
3.9444883 0.3391495 -0.12260307 47 40
3.8496604 0.56048596 -0.35007593 43 17
3.9657378 0.3409563 -0.068161868 35 48
3.9862909 0.34200305 -0.01314897 46 56
3.9811068 0.34156317 0.042159375 30 64
3.9208272 0.4514986 -0.18373975 55 31
3.9378917 0.4534519 -0.12961486 46 39
3.9341936 0.56995344 -0.081826173 17 46
3.833308 0.44080275 -0.45919174 57 10
3.9547386 0.57292134 -0.026955212 45 54
3.8724372 0.67708987 -0.19663319 36 29
3.8994029 0.68180102 -0.14245793 32 37
3.8184538 0.78188014 -0.25580657 58 24
3.9551542 0.44703704 -0.075046055 42 47
3.8654528 0.55244887 -0.29699516 35 21
3.9806569 0.44990215 -0.020094447 45 55
3.8841019 0.55441469 -0.24389113 34 25
3.8678792 0.32175806 -0.38991198 51 14
3.9855981 0.44975281 0.035381719 36 63
3.8969867 0.55624849 -0.19007815 42 30
3.887939 0.32272407 -0.33681557 49 18
3.9240713 0.55940437 -0.13647006 43 38
3.9021974 0.32320812 -0.28421998 52 22
3.9157248 0.32431555 -0.2306159 47 26
3.822675 0.54363024 -0.47982237 25 9
3.9335473 0.3250834 -0.17691405 48 32
3.8315165 0.54488385 -0.40228862 44 13
3.9456482 0.32537863 -0.12260307 46 40
3.8515937 0.54704475 -0.35007593 38 17
3.9669042 0.32711121 -0.068161868 43 48
3.9874606 0.32808623 -0.01314897 47 56
3.9922416 0.32847509 0.04226584 36 64
3.9223793 0.43780962 -0.18373975 49 31
3.9344835 0.43915239 -0.12944996 43 39
3.9361591 0.55621713 -0.081826173 14 46
3.8348234 0.42741936 -0.45919174 54 10
3.9616654 0.55981088 -0.026989246 40 54
3.8747771 0.66356844 -0.19663319 14 29
3.8968339 0.66734266 -0.14227645 44 37
3.8309419 0.77051532 -0.25646755 54 24
3.9566905 0.43322828 -0.075046055 29 47
3.8673575 0.53895259 -0.29699516 29 21
3.9772325 0.43546346 -0.020069137 42 55
3.8860137 0.54085326 -0.24389113 25 25
3.8689785 0.30825469 -0.38991198 55 14
3.9871435 0.43583778 0.035381719 28 63
3.8989048 0.54264206 -0.19007815 20 30
3.8890419 0.30915067 -0.33681557 43 18
3.9309497 0.5463894 -0.13664369 43 38
3.903302 0.30958495 -0.28421998 52 22
3.9168332 0.31064513 -0.2306159 41 26
3.8245492 0.53028333 -0.47982237 29 9
3.9346581 0.31135076 -0.17691405 49 32
3.8333952 0.53150612 -0.40228862 43 13
3.9467599 0.31160375 -0.12260307 45 40
3.8534796 0.53359681 -0.35007593 37 17
3.9730058 0.31365091 -0.068248257 31 48
3.9885817 0.31416538 -0.01314897 48 56
3.97841 0.3133738 0.042106144 42 64
3.9189177 0.42358193 -0.18350509 42 31
3.9359927 0.42541578 -0.12944996 42 39
3.9380765 0.54247391 -0.081826173 17 46
3.836292 0.41403073 -0.45919174 36 10
3.9586418 0.54529834 -0.026955212 36 54
3.8770697 0.6500389 -0.19663319 17 29
3.9040678 0.6545617 -0.14245793 43 37
3.8287139 0.75617087 -0.25613707 47 24
3.9532073 0.4188908 -0.074950933 23 47
3.8741558 0.52611852 -0.29737791 40 21
3.9787283 0.42157769 -0.020069137 42 55
3.892823 0.52795386 -0.24420421 34 25
3.8749914 0.29512051 -0.39041638 40 14
3.993613 0.42243999 0.035426226 20 63
3.9007752 0.52902901 -0.19007815 17 30
3.8900971 0.2955735 -0.33681557 38 18
3.927881 0.53199583 -0.13647006 37 38
3.9043586 0.29595801 -0.28421998 46 22
3.9317722 0.65003479 -0.088926286 38 45
3.9178936 0.29697093 -0.2306159 39 26
3.8263769 0.51692992 -0.47982237 29 9
3.9357209 0.29761434 -0.17691405 47 32
3.835227 0.51812178 -0.40228862 30 13
3.9428396 0.29745385 -0.12244688 43 40
3.8553185 0.5201425 -0.35007593 23 17
3.9690909 0.29940927 -0.068161868 27 48
3.9896541 0.30024073 -0.01314897 40 56
3.9203725 0.40989977 -0.18350509 31 31
3.9374537 0.41167402 -0.12944996 37 39
3.9449015 0.52938706 -0.081930012 17 46
3.837714 0.40063706 -0.45919174 29 10
3.9605212 0.53147674 -0.026955212 40 54
3.9704232 0.53280151 0.028408481 43 62
3.8842432 0.63730931 -0.19688529 25 29
3.9063289 0.64092994 -0.14245793 65 37
3.8274491 0.74204862 -0.31009722 56 20
3.8362274 0.74375176 -0.25646755 45 24
3.8592408 0.74681902 -0.20343103 41 28
3.9546452 0.40508896 -0.074950933 25 47
3.8759687 0.51259196 -0.29737791 31 21
3.9801755 0.40768674 -0.020069137 31 55
3.8946424 0.51436216 -0.24420421 25 25
3.8710365 0.28123683 -0.38991198 35 14
3.9900892 0.40799186 0.035381719 23 63
3.9025981 0.51540959 -0.19007815 23 30
3.886137 0.28163749 -0.33638152 20 18
3.929714 0.5182817 -0.13647006 30 38
3.9003942 0.28197268 -0.28385469 41 22
3.9241481 0.63471144 -0.088701159 54 45
3.913928 0.28293806 -0.23032025 17 26
3.833077 0.50421518 -0.48044467 29 9
3.9317534 0.28351977 -0.17668809 33 32
3.8419425 0.50537765 -0.40281036 32 13
3.9388692 0.28333512 -0.12229071 36 40
3.8620484 0.50732821 -0.35052824 25 17
3.9651256 0.28519878 -0.068075471 20 48
3.9757152 0.28525296 -0.013099226 45 56
3.9217792 0.39621264 -0.18350509 20 31
3.9338944 0.3974283 -0.12928505 29 39
3.9417679 0.51496798 -0.081826173 23 46
3.8390889 0.3872385 -0.45919174 25 10
3.9623523 0.5176487 -0.026955212 41 54
3.9722588 0.51893884 0.028408481 47 62
3.8864443 0.62374687 -0.19688529 30 29
3.9085424 0.62729037 -0.14245793 57 37
3.8300161 0.72868377 -0.31009722 56 20
3.8437016 0.73128951 -0.25679806 45 24
3.861824 0.73334318 -0.20343103 57 28
3.9560351 0.39128223 -0.074950933 23 47
3.8777342 0.4990592 -0.29737791 36 21
3.9815743 0.39379087 -0.020069137 32 55
3.8914645 0.50013018 -0.24389113 28 25
3.8719945 0.26772267 -0.38991198 34 14
3.9914892 0.39406136 0.035381719 23 63
3.9043734 0.50178385 -0.19007815 29 30
3.892066 0.26840851 -0.33681557 25 18
3.9314995 0.50456125 -0.13647006 37 38
3.9013546 0.26835603 -0.28385469 30 22
3.931277 0.62178999 -0.08881373 47 45
3.9148917 0.26927415 -0.23032025 30 26
3.8249712 0.48957652 -0.47920001 30 9
3.9327195 0.26979369 -0.17668809 33 32
3.8436832 0.49196365 -0.40281036 44 13
3.9498067 0.27025706 -0.12260307 34 40
3.8637955 0.49384412 -0.35052824 23 17
3.9660966 0.2713562 -0.068075471 20 48
3.9966416 0.27271631 -0.013165552 42 56
3.9231386 0.38252068 -0.18350509 23 31
3.940232 0.38417563 -0.12944996 31 39
3.9435415 0.5012055 -0.081826173 23 46
3.8453586 0.37431273 -0.45978811 28 10
3.9641349 0.5038144 -0.026955212 49 54
3.9790063 0.50569832 0.028444258 40 62
3.888598 0.61017692 -0.19688529 38 29
3.9107082 0.61364323 -0.14245793 41 37
3.8276374 0.71439505 -0.30969709 45 20
3.851135 0.71878403 -0.25712857 47 24
3.8643603 0.71985847 -0.20343103 41 28
3.9623537 0.37794203 -0.075046055 23 47
3.8794527 0.48552033 -0.29737791 38 21
3.9829247 0.3798902 -0.020069137 41 55
3.8981383 0.48716012 -0.24420421 31 25
3.8729057 0.25420526 -0.38991198 29 14
3.9928403 0.38012603 0.035381719 28 63
3.9061012 0.48815197 -0.19007815 31 30
3.8880084 0.25450048 -0.33638152 25 18
3.9332366 0.49083468 -0.13647006 51 38
3.9072437 0.2550562 -0.28421998 28 22
3.9284835 0.60730046 -0.088701159 65 45
3.9207888 0.25592735 -0.2306159 23 26
3.8266568 0.47622192 -0.47920001 32 9
3.9386218 0.25638399 -0.17691405 20 32
3.845377 0.4785437 -0.40281036 39 13
3.9407508 0.25582993 -0.12229071 31 40
3.8654959 0.48035392 -0.35052824 40 17
3.9670196 0.25751024 -0.068075471 20 48
3.9776096 0.25749052 -0.013099226 40 56
3.9294229 0.369288 -0.18373975 30 31
3.9415488 0.37041929 -0.12944996 32 39
3.945267 0.48743689 -0.081826173 28 46
3.8515847 0.36134794 -0.46038446 29 10
3.9658697 0.48997387 -0.026955212 48 54
3.9757848 0.49119484 0.028408481 42 62
3.8907039 0.59659946 -0.19688529 49 29
3.9750929 0.49040532 0.083834149 12 69
3.9128263 0.59998858 -0.14245793 41 37
3.8350101 0.70192766 -0.31009722 49 20
3.8536208 0.70533663 -0.25712857 45 24
3.8668494 0.70636493 -0.20343103 41 28
3.9636488 0.3641085 -0.075046055 29 47
3.8811238 0.47197554 -0.29737791 43 21
3.9792471 0.36553079 -0.020043829 46 55
3.8998148 0.47355011 -0.24420421 39 25
3.873769 0.24068475 -0.38991198 29 14
3.9891636 0.365733 0.035337213 32 63
3.9077814 0.47451416 -0.19007815 40 30
3.8888731 0.24092725 -0.33638152 25 18
3.934926 0.47710216 -0.13647006 54 38
3.9031329 0.24111313 -0.28385469 29 22
3.9305794 0.59358376 -0.088701159 40 45
3.9216578 0.24223967 -0.2306159 25 26
3.8233705 0.46226808 -0.47857767 36 9
3.9562476 0.59675044 -0.033909269 34 53
3.9345069 0.24233176 -0.17668809 28 32
3.847024 0.4651179 -0.40281036 46 13
3.9466085 0.2423742 -0.12244688 39 40
3.8671491 0.46685788 -0.35052824 47 17
3.9728847 0.2439629 -0.068161868 20 48
3.9257133 0.35512289 -0.18350509 36 31
3.9428179 0.35665846 -0.12944996 43 39
3.9519083 0.47425604 -0.081930012 28 46
3.8528225 0.34790123 -0.46038446 34 10
3.9675558 0.47612745 -0.026955212 43 54
3.9824398 0.47790754 0.028444258 42 62
3.8927627 0.58301473 -0.19688529 48 29
3.9817441 0.47711942 0.083939731 40 69
3.9198382 0.58706605 -0.1426394 41 37
3.798389 0.68220931 -0.36070922 42 16
3.8374367 0.68853676 -0.31009722 47 20
3.8511486 0.69099903 -0.25679806 41 24
3.8692915 0.69286281 -0.20343103 42 28
3.8865891 0.69526255 -0.14960602 42 36
3.9648957 0.3502706 -0.075046055 30 47
3.8827474 0.45842505 -0.29737791 44 21
3.9804988 0.35163844 -0.020043829 43 55
3.8964882 0.45935214 -0.24389113 53 25
3.8795516 0.22744764 -0.39041638 32 14
3.9904158 0.35180598 0.035337213 31 63
3.9094138 0.46087056 -0.19007815 49 30
3.8896904 0.22735108 -0.33638152 28 18
3.9365675 0.4633638 -0.13647006 57 38
3.9089291 0.22777249 -0.28421998 36 22
3.9326277 0.57985991 -0.088701159 37 45
3.9224796 0.22854906 -0.2306159 29 26
3.8249609 0.44891924 -0.47857767 50 9
3.9533598 0.58220905 -0.03386651 51 53
3.9403157 0.22888122 -0.17691405 32 32
3.8535635 0.45226407 -0.40333217 51 13
3.95242 0.2288807 -0.12260307 32 40
3.8687553 0.45335618 -0.35052824 49 17
3.9737117 0.23009346 -0.068161868 28 48
3.9269288 0.34141743 -0.18350509 49 31
3.9490173 0.34332275 -0.12961486 51 39
3.9485738 0.45988211 -0.081826173 37 46
3.8540134 0.33445022 -0.46038446 55 10
3.9691935 0.46227521 -0.026955212 43 54
3.9840837 0.46400332 0.028444258 41 62
3.8947744 0.5694229 -0.19688529 42 29
3.973454 0.4620668 0.083728567 46 69
3.9169199 0.57265747 -0.14245793 41 37
3.8154545 0.67153692 -0.36211824 20 16
3.8349082 0.67427367 -0.30969709 34 20
3.8535373 0.67755175 -0.25679806 37 24
3.8766046 0.68021584 -0.20369184 37 28
3.8988349 0.68341827 -0.14998816 37 36
3.966094 0.3364284 -0.075046055 33 47
3.8843241 0.44486895 -0.29737791 49 21
3.9817019 0.33774176 -0.020043829 52 55
3.898068 0.44574806 -0.24389113 46 25
3.8852897 0.21417312 -0.39092082 40 14
3.9866376 0.33745632 0.035292707 76 63
3.9109988 0.44722134 -0.19007815 46 30
3.8954341 0.21404064 -0.33681557 30 18
3.9331963 0.44905496 -0.13629644 54 38
3.9097004 0.21412639 -0.28421998 52 22
3.9296799 0.56541771 -0.088588595 36 45
3.9232535 0.21485566 -0.2306159 31 26
3.8412931 0.43724197 -0.48044467 43 9
3.9553683 0.56840575 -0.03386651 47 53
3.9410906 0.21512555 -0.17691405 39 32
3.8551188 0.43880987 -0.40333217 47 13
3.9531951 0.21508278 -0.12260307 42 40
3.8703141 0.43984893 -0.35052824 43 17
3.9694989 0.21595435 -0.068075471 28 48
3.8079956 0.54589111 -0.51185209 43 8
3.9280968 0.3277078 -0.18350509 55 31
3.9452116 0.32912391 -0.12944996 56 39
3.9501553 0.44609621 -0.081826173 28 46
3.8502102 0.32058668 -0.45978811 57 10
3.9707832 0.44841731 -0.026955212 43 54
3.9856791 0.45009345 0.028444258 40 62
3.8967383 0.5558241 -0.19688529 41 29
3.984978 0.44931018 0.083939731 48 69
3.918895 0.55898142 -0.14245793 40 37
3.8030591 0.65567517 -0.36070922 20 16
3.8372388 0.66088325 -0.30969709 32 20
3.8558791 0.6640963 -0.25679806 37 24
3.8740342 0.66583335 -0.20343103 17 28
3.8962724 0.66895843 -0.14979708 54 36
3.9672444 0.3225821 -0.075046055 42 47
3.8858535 0.43130741 -0.29737791 44 21
3.9828565 0.32384098 -0.020043829 43 55
3.8996 0.43213853 -0.24389113 40 25
3.8810451 0.20035794 -0.39041638 51 14
3.9877911 0.3235383 0.035292707 47 63
3.9125361 0.43356669 -0.19007815 37 30
3.8961575 0.20044172 -0.33681557 33 18
3.9347394 0.43532285 -0.13629644 42 38
3.9104242 0.20047767 -0.28421998 53 22
3.9365797 0.55239111 -0.088701159 29 45
3.9239798 0.20115964 -0.2306159 34 26
3.8427958 0.42383066 -0.48044467 33 9
3.9573281 0.55459547 -0.03386651 40 53
3.9418173 0.20136727 -0.17691405 51 32
3.8566267 0.42535031 -0.40333217 46 13
3.9539218 0.20128225 -0.12260307 46 40
3.8718259 0.42633635 -0.35052824 43 17
3.9802144 0.20259577 -0.068248257 29 48
3.8098779 0.53259546 -0.51185209 34 8
3.9292169 0.31399417 -0.18350509 50 31
3.9463365 0.31535053 -0.12944996 48 39
3.9516881 0.43230486 -0.081826173 17 46
3.8513055 0.30714497 -0.45978811 53 10
3.9772944 0.43509564 -0.026989246 43 54
3.987226 0.43617806 0.028444258 25 62
3.8986545 0.54221857 -0.19688529 34 29
3.9815526 0.43485656 0.083834149 45 69
3.925771 0.54598612 -0.1426394 39 37
3.8096817 0.64381605 -0.41513002 12 12
3.8249578 0.64571321 -0.3625879 20 16
3.8444366 0.64831418 -0.31009722 23 20
3.8581736 0.65063268 -0.25679806 20 24
3.8763347 0.65230644 -0.20343103 21 28
3.9035108 0.65618283 -0.14998816 51 36
3.9683461 0.30873182 -0.075046055 38 47
3.8873353 0.41774061 -0.29737791 36 21
3.9839625 0.3099362 -0.020043829 43 55
3.9060466 0.41905403 -0.24420421 34 25
3.8817208 0.18680935 -0.39041638 54 14
3.9839108 0.30923274 0.035248201 42 63
3.9140255 0.41990677 -0.19007815 40 30
3.8968334 0.18684037 -0.33681557 51 18
3.936235 0.42158541 -0.13629644 46 38
3.9110999 0.18682654 -0.28421998 54 22
3.938484 0.53864652 -0.088701159 17 45
3.9196723 0.1872278 -0.23032025 42 26
3.8442516 0.41041422 -0.48044467 31 9
3.95924 0.54077846 -0.03386651 33 53
3.9424963 0.18760653 -0.17691405 49 32
3.858088 0.41188559 -0.40333217 44 13
3.974283 0.54212445 0.021506714 35 61
3.9446158 0.1870154 -0.12229071 49 40
3.878242 0.41334423 -0.35098052 39 17
3.8166239 0.51996154 -0.51251769 23 8
3.9302888 0.30027676 -0.18350509 49 31
3.947413 0.30157337 -0.12944996 42 39
3.9531729 0.41850829 -0.081826173 20 46
3.8523543 0.2936995 -0.45978811 46 10
3.9688444 0.42016095 -0.026921177 42 54
3.9887242 0.42225739 0.028444258 17 62
3.9054718 0.52927637 -0.19713737 17 29
3.9830463 0.42095569 0.083834149 32 69
3.9276528 0.53227931 -0.1426394 33 37
3.8020978 0.62889016 -0.41405174 57 12
3.8271885 0.63235766 -0.3625879 23 16
3.8515935 0.63570291 -0.31049734 25 20
3.8653433 0.63797426 -0.25712857 25 24
3.8835151 0.63958359 -0.20369184 20 28
3.9057779 0.64255309 -0.14998816 47 36
3.9273081 0.64539403 -0.095697165 40 44
3.9644141 0.29451084 -0.074950933 20 47
3.8937287 0.40468204 -0.29776061 31 21
3.9850204 0.29602769 -0.020043829 42 55
3.9074857 0.40541682 -0.24420421 28 25
3.8823495 0.17325848 -0.39041638 48 14
3.9105 0.40572831 -0.18983477 20 30
3.8974619 0.17323676 -0.33681557 42 18
3.9327121 0.40733001 -0.13612281 44 38
3.9067466 0.17295733 -0.28385469 55 22
3.9403403 0.52489531 -0.088701159 20 45
3.9203019 0.17354444 -0.23032025 43 26
3.8456609 0.3969928 -0.48044467 28 9
3.9561474 0.52629614 -0.033823747 25 53
3.9381371 0.17362824 -0.17668809 49 32
3.8595023 0.39841586 -0.40333217 43 13
3.971195 0.52759057 0.021479663 50 61
3.9452448 0.17324498 -0.12229071 46 40
3.8747082 0.39929572 -0.35052824 37 17
3.8135035 0.50598472 -0.51185209 28 8
3.931313 0.28655565 -0.18350509 40 31
3.9434576 0.28743258 -0.12928505 41 39
3.9546099 0.4047066 -0.081826173 23 46
3.8583076 0.28060716 -0.46038446 32 10
3.975261 0.40681154 -0.026955212 33 54
3.9851997 0.40782458 0.028408481 17 62
3.9072957 0.5156405 -0.19713737 23 29
3.9844913 0.40704972 0.083834149 23 69
3.9294872 0.51856601 -0.1426394 39 37
3.8189907 0.61799878 -0.41566914 49 12
3.8293726 0.61899447 -0.3625879 28 16
3.8537889 0.62225449 -0.31049734 31 20
3.8675466 0.62447786 -0.25712857 32 24
3.8857241 0.62602365 -0.20369184 25 28
3.9079969 0.62891543 -0.14998816 51 36
3.9246018 0.63088721 -0.095575877 38 44
3.9654179 0.28067067 -0.074950933 27 47
3.8951175 0.39108795 -0.29776061 28 21
3.9760542 0.2814163 -0.019993214 42 55
3.9088771 0.39177471 -0.24420421 24 25
3.8829305 0.15970547 -0.39041638 40 14
3.9168618 0.39257169 -0.19007815 17 30
3.8980429 0.15963101 -0.33681557 35 18
3.9390826 0.39409524 -0.13629644 35 38
3.9123092 0.15951757 -0.28421998 44 22
3.9371912 0.51049566 -0.088588595 20 45
3.9258711 0.16005753 -0.2306159 40 26
3.8470232 0.38356653 -0.48044467 33 9
3.9579604 0.51248348 -0.033823747 40 53
3.9387188 0.15988053 -0.17668809 45 32
3.8608694 0.38494125 -0.40333217 30 13
3.9829295 0.5150063 0.021533767 52 61
3.9408314 0.15927537 -0.12213452 49 40
3.8760781 0.38576806 -0.35052824 25 17
3.8152461 0.49267 -0.51185209 30 8
3.9322894 0.27283108 -0.18350509 25 31
3.9394512 0.27332309 -0.12912016 37 39
3.9510238 0.39041042 -0.081722334 23 46
3.8592634 0.26713744 -0.46038446 28 10
3.9766567 0.3929328 -0.026955212 31 54
3.986599 0.39391115 0.028408481 20 62
3.904119 0.50136298 -0.19688529 29 29
3.985888 0.39313877 0.083834149 25 69
3.9263175 0.50421059 -0.14245793 55 37
3.8113053 0.603109 -0.4145909 53 12
3.8315098 0.60562366 -0.3625879 30 16
3.8510146 0.6080206 -0.31009722 39 20
3.8647752 0.6101951 -0.25679806 43 24
3.8878856 0.6124562 -0.20369184 30 28
3.9151034 0.61604738 -0.15017922 49 36
3.92678 0.61718398 -0.095575877 53 44
3.9613853 0.2664949 -0.074855827 23 47
3.8914967 0.37701038 -0.29737791 28 21
3.9869897 0.26820004 -0.020043829 40 55
3.9102209 0.37812778 -0.24420421 28 25
3.8784933 0.14596829 -0.38991198 36 14
3.9182084 0.37889689 -0.19007815 25 30
3.8935988 0.14584167 -0.33638152 23 18
3.9404342 0.38034287 -0.13629644 32 38
3.9078586 0.1456791 -0.28385469 38 22
3.9389491 0.49674925 -0.088588595 31 45
3.921418 0.14617157 -0.23032025 25 26
3.8483386 0.37013555 -0.48044467 25 9
3.9646859 0.49928847 -0.03386651 56 53
3.9392531 0.14613086 -0.17668809 33 32
3.8671396 0.37193593 -0.40385392 28 13
3.9747813 0.49985373 0.021479663 43 61
3.9413633 0.14551832 -0.12213452 45 40
3.8823578 0.37270945 -0.35098052 25 17
3.8169427 0.47934932 -0.51185209 34 8
3.933218 0.25910315 -0.18350509 23 31
3.9453683 0.25989527 -0.12928505 30 39
3.957339 0.37708858 -0.081826173 23 46
3.8601727 0.25366449 -0.46038446 29 10
3.973027 0.37857702 -0.026921177 42 54
3.9879498 0.37999293 0.028408481 28 62
3.9058452 0.48773199 -0.19688529 31 29
3.987236 0.37922305 0.083834149 25 69
3.9280534 0.49050212 -0.14245793 49 37
3.8182995 0.59056187 -0.41513002 51 12
3.8385203 0.59300625 -0.36305758 34 16
3.8580394 0.59533501 -0.31049734 49 20
3.8718123 0.59746224 -0.25712857 49 24
3.8899996 0.59888124 -0.20369184 33 28
3.9122922 0.6016174 -0.14998816 48 36
3.9289105 0.60347319 -0.095575877 48 44
3.8907335 0.72649527 -0.15683334 49 35
3.9672809 0.25298023 -0.074950933 23 47
3.8927889 0.36342424 -0.29737791 32 21
3.9779222 0.25365159 -0.019993214 34 55
3.906548 0.36401531 -0.24389113 30 25
3.8789792 0.13242893 -0.38991198 36 14
3.919507 0.36521748 -0.19007815 30 30
3.8990624 0.13241388 -0.33681557 28 18
3.9417377 0.36658585 -0.13629644 42 38
3.9133272 0.13220084 -0.28421998 33 22
3.9456208 0.48360416 -0.088701159 29 45
3.9219041 0.13248236 -0.23032025 23 26
3.8545475 0.3571558 -0.48106703 28 9
3.9664044 0.4854461 -0.03386651 44 53
3.9397392 0.1323794 -0.17668809 25 32
3.8733661 0.35889161 -0.4043757 35 13
3.9814651 0.48658201 0.021506714 55 61
3.9318576 0.13143508 -0.12182216 42 40
3.8836353 0.35915521 -0.35098052 29 17
3.8235118 0.46662244 -0.51251769 52 8
3.9340982 0.24537209 -0.18350509 25 31
3.9462512 0.24612178 -0.12928505 30 39
3.958631 0.36327258 -0.081826173 25 46
3.8610344 0.24018843 -0.46038446 29 10
3.974324 0.36470628 -0.026921177 50 54
3.9892521 0.36607006 0.028408481 29 62
3.9124811 0.47469583 -0.19713737 40 29
3.9835575 0.3648487 0.083728567 32 69
3.9347022 0.4773888 -0.1426394 63 37
3.8315909 0.81169146 -0.27067596 55 23
3.8203375 0.57722992 -0.41513002 53 12
3.8405671 0.57960373 -0.36305758 45 16
3.8600938 0.5818643 -0.31049734 42 20
3.8738742 0.58394349 -0.25712857 52 24
3.8920662 0.5852989 -0.20369184 43 28
3.9193091 0.5887 -0.15017922 51 36
3.9309928 0.58975506 -0.095575877 42 44
3.9616058 0.59435201 -0.040187821 39 52
3.8932459 0.71290964 -0.15683334 32 35
3.97313 0.23942764 -0.075046055 23 47
3.8940337 0.34983364 -0.29737791 40 21
3.9127655 0.35082027 -0.24420421 33 25
3.8843901 0.11903553 -0.39041638 31 14
3.9157836 0.35108966 -0.18983477 33 30
3.8995008 0.1188028 -0.33681557 30 18
3.9429934 0.35282442 -0.13629644 54 38
3.913765 0.11853997 -0.28421998 32 22
3.9472849 0.46982846 -0.088701159 29 45
3.9273319 0.11893789 -0.2306159 28 26
3.8508289 0.34326029 -0.48044467 30 9
3.9730399 0.47218722 -0.033909269 41 53
3.9301915 0.11833521 -0.17623621 28 32
3.8696418 0.34492937 -0.40385392 43 13
3.9831393 0.47268113 0.021506714 53 61
3.8848655 0.34559658 -0.35098052 41 17
3.8201962 0.45269057 -0.51185209 59 8
3.9299448 0.2313479 -0.18327044 31 31
3.9470863 0.23234528 -0.12928505 38 39
3.9598751 0.34945217 -0.081826173 28 46
3.8668056 0.22699693 -0.4609808 30 10
3.9805536 0.35126859 -0.026955212 53 54
3.9855249 0.35170525 0.028372701 34 62
3.9141142 0.46103588 -0.19713737 49 29
3.9313819 0.46306741 -0.14245793 68 37
3.8295188 0.79729182 -0.27032804 96 23
3.8223293 0.56389087 -0.41513002 51 12
3.8425667 0.56619412 -0.36305758 43 16
3.8571708 0.56766021 -0.31009722 47 20
3.8758891 0.57041758 -0.25712857 44 24
3.8940856 0.57170951 -0.20369184 42 28
3.9213402 0.57501549 -0.15017922 49 36
3.9330277 0.57602978 -0.095575877 38 44
3.9636564 0.58051986 -0.040187821 50 52
3.8957107 0.69931537 -0.15683334 71 35
3.9689505 0.22527744 -0.074950933 25 47
3.8952312 0.3362388 -0.29737791 44 21
3.9139659 0.33716005 -0.24420421 45 25
3.8847818 0.10547575 -0.39041638 33 14
3.9219611 0.33784547 -0.19007815 42 30
3.8998919 0.10519028 -0.33681557 30 18
3.944201 0.33905864 -0.13629644 58 38
3.9141548 0.10487765 -0.28421998 32 22
3.9439349 0.45547417 -0.088588595 42 45
3.9277229 0.10522821 -0.2306159 30 26
3.8520036 0.32981631 -0.48044467 54 9
3.969697 0.45774376 -0.03386651 54 53
3.9405673 0.10487185 -0.17668809 29 32
3.8658679 0.33099756 -0.40333217 47 13
3.9847648 0.45877448 0.021506714 42 61
3.8860478 0.33203378 -0.35098052 48 17
3.821753 0.43935284 -0.51185209 38 8
3.9357154 0.21790114 -0.18350509 36 31
3.9528632 0.21883884 -0.12944996 51 39
3.9610708 0.33562747 -0.081826173 28 46
3.8675742 0.21349789 -0.4609808 33 10
3.9817555 0.33737168 -0.026955212 49 54
3.9917102 0.33821112 0.028408481 46 62
3.9156997 0.44737023 -0.19713737 49 29
3.9329746 0.44934148 -0.14245793 67 37
3.8371642 0.78492236 -0.27067596 95 23
3.8291945 0.55125409 -0.41566914 37 12
3.8445199 0.55277759 -0.36305758 38 16
3.8640621 0.55490178 -0.31049734 52 20
3.8729184 0.55617487 -0.25679806 51 24
3.8911152 0.5574044 -0.20343103 28 28
3.9233234 0.56132388 -0.15017922 45 36
3.9300663 0.56158966 -0.095454589 20 44
3.9607093 0.56597263 -0.040137205 41 52
3.9030478 0.68658006 -0.15703312 41 35
3.9747047 0.21168435 -0.075046055 30 47
3.9013495 0.32304922 -0.29776061 44 21
3.910146 0.32308683 -0.24389113 54 25
3.8900998 0.092027552 -0.39092082 36 14
3.9181395 0.32374403 -0.18983477 50 30
3.9052153 0.091688618 -0.33724961 31 18
3.9453604 0.32528874 -0.13629644 50 38
3.9144971 0.091214068 -0.28421998 47 22
3.9455011 0.44170451 -0.088588595 20 45
3.9280665 0.091517262 -0.2306159 32 26
3.8531315 0.31636831 -0.48044467 31 9
3.9712708 0.44388416 -0.03386651 54 53
3.930922 0.090894632 -0.17623621 30 32
3.8669999 0.31750119 -0.40333217 49 13
3.986342 0.44486225 0.021506714 38 61
3.8871832 0.31846696 -0.35098052 48 17
3.8331134 0.4271059 -0.5131833 46 8
3.9364522 0.20416161 -0.18350509 43 31
3.953603 0.20503944 -0.12944996 57 39
3.962218 0.32179871 -0.081826173 40 46
3.8682957 0.19999625 -0.4609808 57 10
3.9779253 0.32306799 -0.026921177 45 54
3.9878829 0.32387266 0.028372701 43 62
3.9122744 0.43315035 -0.19688529 38 29
3.9345191 0.43561012 -0.14245793 41 37
3.8398809 0.77152342 -0.27067596 95 23
3.8310955 0.53788435 -0.41566914 31 12
3.8531373 0.77349669 -0.21702477 95 27
3.8464258 0.53935432 -0.36305758 20 16
3.8659754 0.54141039 -0.31049734 31 20
3.8748362 0.54265249 -0.25679806 45 24
3.8979821 0.54450995 -0.20369184 17 28
3.9252586 0.5476256 -0.15017922 41 36
3.9369533 0.54855818 -0.095575877 14 44
3.962661 0.55214369 -0.040137205 41 52
3.9661303 0.56462896 0.014550777 11 60
3.9004979 0.67210132 -0.15683334 44 35
3.9754193 0.19780874 -0.075046055 31 47
3.9024534 0.30942899 -0.29776061 49 21
3.9162245 0.30982742 -0.24420421 43 25
3.8903973 0.078448012 -0.39092082 48 14
3.9242241 0.31045699 -0.19007815 44 30
3.9055114 0.078056313 -0.33724961 35 18
3.9414899 0.31112367 -0.13612281 48 38
3.9147918 0.077549368 -0.28421998 44 22
3.9470189 0.42792943 -0.088588595 17 45
3.9283621 0.077805199 -0.2306159 36 26
3.8542123 0.30291641 -0.48044467 42 9
3.9777668 0.43055648 -0.033909269 43 53
3.9362092 0.077265881 -0.17646216 34 32
3.8730416 0.3043884 -0.40385392 47 13
3.9928417 0.43148112 0.021533767 29 61
3.8882713 0.30489621 -0.35098052 43 17
3.8345811 0.41372326 -0.5131833 43 8
3.9371407 0.19041958 -0.18350509 56 31
3.9542944 0.19123754 -0.12944996 53 39
3.9633174 0.30796602 -0.081826173 20 46
3.8689704 0.18649216 -0.4609808 56 10
3.9790287 0.30918047 -0.026921177 43 54
3.9889894 0.30995038 0.028372701 43 62
3.9137626 0.41949132 -0.19688529 41 29
3.9360158 0.42187342 -0.14245793 43 37
3.827872 0.75520861 -0.26963222 40 23
3.8329496 0.52450806 -0.41566914 35 12
3.8607113 0.76101083 -0.21730302 96 27
3.848285 0.52592456 -0.36305758 17 16
3.8678415 0.52791232 -0.31049734 31 20
3.8816495 0.52979887 -0.25712857 34 24
3.8998592 0.53090012 -0.20369184 17 28
3.9320974 0.53459436 -0.15037028 45 36
3.938844 0.53481233 -0.095575877 17 44
3.8294861 0.7513622 -0.32399574 85 19
3.9645638 0.53830808 -0.040137205 36 52
3.9730289 0.55146927 0.014569103 41 60
3.9028201 0.65848196 -0.15683334 42 35
3.9243157 0.66211766 -0.10258031 78 43
3.8985386 0.29543033 -0.29737791 44 21
3.9172821 0.29615536 -0.24420421 49 25
3.8906474 0.064867511 -0.39092082 48 14
3.9203038 0.29638258 -0.18983477 42 30
3.9057603 0.064423062 -0.33724961 52 18
3.9375691 0.29698962 -0.13594919 47 38
3.9150386 0.063883722 -0.28421998 56 22
3.9484885 0.41414917 -0.088588595 28 45
3.9336002 0.064168841 -0.23091157 38 26
3.860194 0.28983027 -0.48106703 29 9
3.9693 0.41562885 -0.033823747 39 53
3.8740807 0.29086712 -0.40385392 46 13
3.9893506 0.41702175 0.021506714 25 61
3.8893118 0.29132175 -0.35098052 43 17
3.8360019 0.40033558 -0.5131833 36 8
3.9377816 0.17667525 -0.18350509 54 31
3.9449532 0.17699213 -0.12912016 43 39
3.9643681 0.29412961 -0.081826173 17 46
3.8695979 0.17298578 -0.4609808 56 10
3.9800837 0.29528919 -0.026921177 42 54
3.9152031 0.40582716 -0.19688529 31 29
3.9374645 0.4081316 -0.14245793 39 37
3.835381 0.74279392 -0.26998013 54 23
3.8347573 0.51112533 -0.41566914 33 12
3.8535426 0.74562633 -0.21674655 40 27
3.8500974 0.51248825 -0.36305758 20 16
3.8696606 0.51440781 -0.31049734 23 20
3.8834751 0.51624614 -0.25712857 23 24
3.9066381 0.51794082 -0.20395264 20 28
3.9289865 0.52020895 -0.15017922 37 36
3.9406869 0.52105993 -0.095575877 20 44
3.8271937 0.73704457 -0.32357824 95 19
3.9614623 0.52380985 -0.04008659 34 52
3.9699752 0.53692663 0.014550777 51 60
3.9100237 0.64567053 -0.15703312 48 35
3.9266031 0.64841521 -0.10258031 35 43
3.8995461 0.28182009 -0.29737791 34 21
3.918292 0.2824797 -0.24420421 40 25
3.8908501 0.051286221 -0.39092082 52 14
3.9163334 0.2823393 -0.18959141 33 30
3.905961 0.050789021 -0.33724961 52 18
3.9385817 0.28324315 -0.13594919 42 38
3.9152377 0.050217301 -0.28421998 58 22
3.9499099 0.40036383 -0.088588595 20 45
3.9288094 0.050378382 -0.2306159 49 26
3.8562331 0.27600178 -0.48044467 28 9
3.9707267 0.40177089 -0.033823747 35 53
3.8750725 0.27734229 -0.40385392 30 13
3.9858074 0.40259197 0.021479663 23 61
3.8903053 0.2777437 -0.35098052 37 17
3.8373761 0.38694295 -0.5131833 29 8
3.938374 0.16292873 -0.18350509 45 31
3.9455469 0.16322058 -0.12912016 41 39
3.9603844 0.27993914 -0.081722334 17 46
3.870178 0.15947731 -0.4609808 52 10
3.9761026 0.2810438 -0.026887143 42 54
3.9165955 0.39215812 -0.19688529 20 29
3.933893 0.39388767 -0.14227645 33 37
3.84285 0.73033607 -0.27032804 52 23
3.836518 0.49773645 -0.41566914 29 12
3.8610258 0.733105 -0.21702477 32 27
3.8567991 0.49968606 -0.36352724 20 16
3.8714328 0.50089699 -0.31049734 28 20
3.8852537 0.5026871 -0.25712857 28 24
3.9084222 0.50430095 -0.20395264 20 28
3.930778 0.50649107 -0.15017922 37 36
3.9375243 0.50666261 -0.095454589 25 44
3.8297429 0.72368073 -0.32357824 95 19
3.9632666 0.50997853 -0.04008659 36 52
3.9767821 0.52371907 0.014569103 50 60
3.9122536 0.63201809 -0.15703312 47 35
3.9239082 0.63390571 -0.1024503 49 43
3.900506 0.26820639 -0.29737791 30 21
3.9142754 0.26846117 -0.24389113 26 25
3.8860309 0.037660897 -0.39041638 53 14
3.9222772 0.26900667 -0.18983477 20 30
3.9061146 0.037154362 -0.33724961 41 18
3.9495175 0.2701712 -0.13629644 38 38
3.9203756 0.036592044 -0.28458533 47 22
3.9463081 0.38608757 -0.088476032 20 45
3.9339523 0.036705784 -0.23091157 48 26
3.8621233 0.26287419 -0.48106703 28 9
3.9770811 0.38839328 -0.03386651 34 53
3.8760169 0.26381406 -0.40385392 43 13
3.9921646 0.3891609 0.021506714 20 61
3.8912508 0.26416236 -0.35098052 37 17
3.8387034 0.37354568 -0.5131833 29 8
3.933928 0.14899462 -0.18327044 43 31
3.9510865 0.14963281 -0.12928505 40 39
3.9613373 0.26611313 -0.081722334 20 46
3.8707113 0.1459669 -0.4609808 49 10
3.982048 0.26749599 -0.026921177 37 54
3.9179406 0.37848425 -0.19688529 23 29
3.9402177 0.38063321 -0.14245793 33 37
3.7659993 0.47521633 -0.55183524 56 7
3.845376 0.71691757 -0.27032804 46 23
3.8431637 0.48496446 -0.41620827 35 12
3.8586543 0.71870553 -0.21674655 46 27
3.85852 0.4862203 -0.36352724 28 16
3.8781028 0.48800308 -0.31089747 31 20
3.8869848 0.48912197 -0.25712857 33 24
3.9052048 0.49003252 -0.20369184 28 28
3.9325223 0.49276701 -0.15017922 42 36
3.9392688 0.492915 -0.095454589 28 44
3.827347 0.70939654 -0.32316071 96 19
3.9650226 0.49614108 -0.04008659 44 52
3.978586 0.50983429 0.014569103 54 60
3.9144359 0.6183579 -0.15703312 44 35
3.9310338 0.62098676 -0.10258031 51 43
3.9063935 0.25491205 -0.29776061 35 21
3.9201686 0.25511819 -0.24420421 25 25
3.8861389 0.024095885 -0.39041638 43 14
3.9231927 0.25531372 -0.18983477 20 30
3.9012394 0.023494039 -0.33681557 45 18
3.9454496 0.25606155 -0.13612281 36 38
3.915493 0.022882782 -0.28421998 48 22
3.9526088 0.37277874 -0.088588595 23 45
3.9340568 0.022973506 -0.23091157 45 26
3.8630173 0.24939124 -0.48106703 32 9
3.9734349 0.3740404 -0.033823747 43 53
3.8769143 0.25028262 -0.40385392 31 13
3.9934988 0.37522328 0.021506714 28 61
3.8921492 0.25057772 -0.35098052 25 17
3.8449175 0.36060587 -0.5138489 31 8
3.9394157 0.13542995 -0.18350509 28 31
3.9415958 0.13550341 -0.12895525 39 39
3.9622421 0.25228384 -0.081722334 23 46
3.8711972 0.13245469 -0.4609808 46 10
3.9729779 0.25296304 -0.026853109 28 54
3.9192379 0.36480579 -0.19688529 28 29
3.9415224 0.36687696 -0.14245793 53 37
3.7872756 0.46447921 -0.55473965 42 7
3.9599779 0.60433525 -0.047809206 55 51
3.8478551 0.70349038 -0.27032804 46 23
3.8448331 0.47154638 -0.41620827 38 12
3.8660498 0.70613229 -0.21702477 36 27
3.8601935 0.47274858 -0.36352724 30 16
3.883522 0.70863545 -0.16326103 99 34
3.8797827 0.47446302 -0.31089747 41 20
3.8886685 0.47555089 -0.25712857 48 24
3.9118478 0.47700289 -0.20395264 30 28
3.9342186 0.47903699 -0.15017922 53 36
3.780813 0.68777627 -0.37259069 95 15
3.9459271 0.47976536 -0.095575877 29 44
3.8248987 0.69513804 -0.32274318 38 19
3.9667301 0.48229751 -0.04008659 42 52
3.9803414 0.49594334 0.014569103 50 60
3.9797549 0.49587017 0.070066974 52 68
3.9165707 0.60469019 -0.15703312 48 35
3.9282382 0.60649639 -0.1024503 54 43
3.9072595 0.24127465 -0.29776061 29 21
3.9160545 0.24112806 -0.24389113 28 25
3.8911738 0.010539267 -0.39092082 38 14
3.9240599 0.24161769 -0.18983477 25 30
3.9062788 0.0098838545 -0.33724961 28 18
3.9463193 0.2422878 -0.13612281 51 38
3.9155488 0.0092150234 -0.28421998 40 22
3.953886 0.35897928 -0.088588595 28 45
3.8688161 0.23620556 -0.48168936 31 9
3.9747162 0.36016828 -0.033823747 56 53
3.8777642 0.23674814 -0.40385392 29 13
3.9898047 0.36083141 0.021479663 34 61
3.8930004 0.23699006 -0.35098052 30 17
3.8461528 0.34718239 -0.5138489 34 8
3.9348724 0.12152722 -0.18327044 28 31
3.9680886 0.23874971 -0.081826173 23 46
3.8716359 0.1189409 -0.4609808 29 10
3.9788277 0.23939151 -0.026887143 37 54
3.9204874 0.35112286 -0.19688529 32 29
3.9427788 0.35311624 -0.14245793 60 37
3.7888741 0.45125633 -0.55473965 43 7
3.9620631 0.5905087 -0.047809206 33 51
3.8453782 0.68917125 -0.26998013 44 23
3.8464558 0.45812255 -0.41620827 47 12
3.858664 0.69086665 -0.2164683 43 27
3.8618205 0.4592711 -0.36352724 34 16
3.8810549 0.69419217 -0.16305251 45 34
3.8814154 0.46091717 -0.31089747 39 20
3.8952591 0.46256304 -0.25745907 53 24
3.9134891 0.46334508 -0.20395264 33 28
3.9358668 0.46530107 -0.15017922 49 36
3.788089 0.67545146 -0.37307775 47 15
3.9475782 0.46598858 -0.095575877 32 44
3.8273022 0.68178242 -0.32274318 44 19
3.9733551 0.46903494 -0.040137205 44 52
3.9820483 0.48204634 0.014569103 46 60
3.9864247 0.48257673 0.070155106 41 68
3.9235978 0.59176224 -0.15723291 49 35
3.9303312 0.59278065 -0.1024503 49 43
3.908078 0.22763431 -0.29776061 37 21
3.921854 0.22774427 -0.24420421 31 25
3.8862121 -0.0030353877 -0.39041638 34 14
3.9298651 0.22820619 -0.19007815 30 30
3.9013083 -0.0037426427 -0.33681557 29 18
3.9521301 0.2287979 -0.13629644 52 38
3.9155571 -0.0044533941 -0.28421998 29 22
3.9600949 0.3456094 -0.088701159 29 45
3.8696172 0.22269945 -0.48168936 30 9
3.9759495 0.34629172 -0.033823747 43 53
3.883532 0.22349446 -0.4043757 36 13
3.9910398 0.34690213 0.021479663 36 61
3.8938036 0.22339952 -0.35098052 28 17
3.8473413 0.33375469 -0.5138489 49 8
3.9302797 0.10765786 -0.18303578 29 31
3.9639068 0.22461627 -0.081722334 29 46
3.8720274 0.10542564 -0.4609808 30 10
3.9216895 0.33743569 -0.19688529 40 29
3.9439876 0.33935124 -0.14245793 65 37
3.790426 0.43802798 -0.55473965 49 7
3.9591532 0.57595319 -0.04774899 48 51
3.8477604 0.67574418 -0.26998013 39 23
3.8480313 0.44469312 -0.41620827 58 12
3.8610523 0.67739314 -0.2164683 31 27
3.8634 0.44578803 -0.36352724 45 16
3.8932946 0.68237209 -0.16346954 46 34
3.8830004 0.44736567 -0.31089747 42 20
3.8918934 0.4483915 -0.25712857 45 24
3.9101222 0.44911119 -0.20369184 43 28
3.9374669 0.45155945 -0.15017922 51 36
3.7953248 0.66308427 -0.37356478 31 15
3.9442146 0.45163682 -0.095454589 42 44
3.8247507 0.66755837 -0.32232565 37 19
3.974968 0.45516247 -0.040137205 46 52
3.9837067 0.46814346 0.014569103 43 60
3.9781551 0.46749032 0.069978841 41 68
3.9256392 0.57806271 -0.15723291 48 35
3.9323764 0.57905757 -0.1024503 25 43
3.9088488 0.21399118 -0.29776061 41 21
3.9226251 0.21405305 -0.24420421 36 25
3.8911524 -0.016626827 -0.39092082 33 14
3.9306376 0.214487 -0.19007815 34 30
3.9012713 -0.017360728 -0.33681557 30 18
3.9529047 0.215001 -0.13629644 58 38
3.9155178 -0.018121213 -0.28421998 41 22
3.956296 0.33136743 -0.088588595 31 45
3.8703709 0.20919059 -0.48168936 49 9
3.9821162 0.3328267 -0.03386651 54 53
3.8842883 0.20993704 -0.4043757 45 13
3.9922266 0.33296871 0.021479663 57 61
3.8995328 0.21007207 -0.35143283 42 17
3.8484831 0.32032296 -0.5138489 56 8
3.9356248 0.094053879 -0.18327044 30 31
3.9746506 0.21130502 -0.081930012 29 46
3.8723719 0.091909111 -0.4609808 32 10
3.9228432 0.32374436 -0.19688529 49 29
3.9401681 0.32517177 -0.14227645 69 37
3.8165131 0.42755142 -0.55837017 49 7
3.9611394 0.56212962 -0.04774899 44 51
3.8500957 0.66230887 -0.26998013 27 23
3.8545001 0.43181235 -0.41674742 57 12
3.8683128 0.66476029 -0.21674655 36 27
3.8649325 0.43229952 -0.36352724 43 16
3.8907299 0.66792917 -0.16326103 54 34
3.8845384 0.43380874 -0.31089747 48 20
3.9172275 0.67249662 -0.1093244 80 42
3.8983934 0.43535793 -0.25745907 45 24
3.9166284 0.43601272 -0.20395264 41 28
3.9340537 0.43725979 -0.14998816 51 36
3.7976162 0.64983207 -0.37356478 34 15
3.9457672 0.43786621 -0.095454589 36 44
3.8270576 0.65420347 -0.32232565 36 19
3.9715633 0.44073236 -0.04008659 43 52
3.9853168 0.4542349 0.014569103 41 60
3.9896967 0.45473468 0.070155106 41 68
3.927633 0.56435615 -0.15723291 46 35
3.9884171 0.45388359 0.12570912 25 72
3.9343736 0.56532747 -0.1024503 29 43
3.9095719 0.20034546 -0.29776061 46 21
3.9233484 0.20035923 -0.24420421 53 25
3.8860965 -0.030165972 -0.39041638 35 14
3.9313626 0.20076519 -0.19007815 41 30
3.9011869 -0.030978601 -0.33681557 32 18
3.9536312 0.20120147 -0.13629644 55 38
3.9154308 -0.031788811 -0.28421998 30 22
3.9624112 0.31795451 -0.088701159 40 45
3.8661225 0.19543082 -0.48106703 55 9
3.9782701 0.31852612 -0.033823747 54 53
3.8849974 0.19637705 -0.4043757 47 13
3.9933646 0.31903124 0.021479663 42 61
3.8952687 0.1962104 -0.35098052 48 17
3.8495777 0.30688727 -0.5138489 58 8
3.9309354 0.080216922 -0.18303578 31 31
3.970371 0.19718367 -0.081826173 29 46
3.8776324 0.078488477 -0.46157715 47 10
3.9239492 0.31004912 -0.19688529 48 29
3.9412792 0.31141603 -0.14227645 66 37
3.8229001 0.41476095 -0.55909622 49 7
3.96803 0.54898638 -0.047809206 37 51
3.8573024 0.6496973 -0.27032804 35 23
3.855984 0.41835502 -0.41674742 42 12
3.9832613 0.55039144 0.0076506459 31 59
3.8706095 0.65125328 -0.21674655 19 27
3.871367 0.41934252 -0.36399692 41 16
3.8930378 0.65434396 -0.16326103 36 34
3.8860292 0.42024654 -0.31089747 52 20
3.9146228 0.65798706 -0.10918567 100 42
3.8949294 0.42121026 -0.25712857 49 24
3.913162 0.42180267 -0.20369184 25 28
3.9355562 0.42352474 -0.14998816 48 36
3.8194907 0.63987446 -0.37551299 35 15
3.9472716 0.42409021 -0.095454589 17 44
3.8342316 0.64166635 -0.32274318 34 19
3.9730775 0.42686629 -0.04008659 43 52
3.9918478 0.44087031 0.014587429 32 60
3.9862905 0.44025579 0.070066974 28 68
3.9295793 0.55064273 -0.15723291 42 35
3.9949443 0.44050699 0.12586704 47 72
3.9363234 0.5515905 -0.1024503 29 43
3.9102476 0.18669729 -0.29776061 48 21
3.9190392 0.18642791 -0.24389113 51 25
3.8859675 -0.043730795 -0.39041638 37 14
3.9270508 0.18680571 -0.18983477 51 30
3.9060361 -0.044657823 -0.33724961 31 18
3.9543095 0.18739949 -0.13629644 53 38
3.9634967 0.30412117 -0.088701159 17 45
3.871737 0.18216543 -0.48168936 54 9
3.9793575 0.30463743 -0.033823747 44 53
3.8856592 0.18281469 -0.4043757 51 13
3.9894683 0.3047097 0.021452609 42 61
3.9009044 0.1828433 -0.35143283 36 17
3.8358018 0.29232025 -0.51185209 49 8
3.9760289 0.1835518 -0.081930012 43 46
3.8778825 0.064952537 -0.46157715 54 10
3.9250078 0.29635006 -0.19688529 31 29
3.9423423 0.29765648 -0.14227645 41 37
3.8243244 0.40141401 -0.55909622 45 7
3.9649675 0.53446215 -0.04774899 31 51
3.8595467 0.63622886 -0.27032804 25 23
3.8524771 0.40437296 -0.41620827 33 12
3.9851582 0.53648394 0.0076506459 32 59
3.8728592 0.63773841 -0.21674655 23 27
3.872807 0.40582639 -0.36399692 20 16
3.9002268 0.64156485 -0.16346954 35 34
3.8874724 0.40667921 -0.31089747 47 20
3.9168956 0.6443184 -0.10918567 43 42
3.9013379 0.40813163 -0.25745907 45 24
3.9146106 0.40814063 -0.20369184 17 28
3.9419796 0.41030243 -0.15017922 41 36
3.8217013 0.62653798 -0.37551299 36 15
3.9487278 0.41030905 -0.095454589 20 44
3.836448 0.62827849 -0.32274318 27 19
3.9695706 0.41247767 -0.040035978 42 52
3.9933624 0.4269335 0.014587429 25 60
3.987803 0.42633837 0.070066974 17 68
3.9314773 0.53692257 -0.15723291 34 35
3.9964576 0.42655936 0.12586704 47 72
3.9382246 0.5378468 -0.1024503 25 43
3.9108753 0.17304684 -0.29776061 47 21
3.9196665 0.17274678 -0.24389113 53 25
3.8907652 -0.057373229 -0.39092082 53 14
3.9276793 0.17309661 -0.18983477 42 30
3.9008758 -0.058213051 -0.33681557 32 18
3.9499469 0.17337812 -0.13612281 50 38
3.9595487 0.28991976 -0.088588595 17 45
3.8723493 0.16864944 -0.48168936 45 9
3.9803967 0.29074502 -0.033823747 40 53
3.8813057 0.16903576 -0.40385392 49 13
3.9905074 0.290782 0.021452609 43 61
3.8965435 0.16901174 -0.35098052 43 17
3.8417413 0.27928767 -0.51251769 45 8
3.8780856 0.051415805 -0.46157715 57 10
3.9260182 0.28264743 -0.19688529 41 29
3.9383736 0.28353524 -0.14209498 45 37
3.820781 0.38756227 -0.55837017 49 7
3.9618518 0.51996601 -0.047688778 33 51
3.8617442 0.62275261 -0.27032804 28 23
3.8538651 0.39092284 -0.41620827 34 12
3.9820495 0.52191812 0.0076410468 36 59
3.875062 0.62421572 -0.21674655 32 27
3.8742001 0.39230525 -0.36399692 23 16
3.9024425 0.62794667 -0.16346954 43 34
3.8888681 0.39310691 -0.31089747 30 20
3.9191208 0.63064206 -0.10918567 52 42
3.9027386 0.39451092 -0.25745907 33 24
3.9160116 0.39447358 -0.20369184 20 28
3.938417 0.39603928 -0.14998816 35 36
3.8238647 0.61319393 -0.37551299 46 15
3.9451623 0.39602301 -0.095333293 20 44
3.8386178 0.61488301 -0.32274318 32 19
3.9709864 0.39861879 -0.040035978 30 52
3.9898548 0.4124766 0.014569103 25 60
3.9892669 0.41241574 0.070066974 20 68
3.9333279 0.52319592 -0.15723291 33 35
4.0028934 0.41312024 0.12602498 45 72
3.9400783 0.52409661 -0.1024503 25 43
3.9486327 0.64319175 -0.054668643 28 50
3.8708086 0.74719018 -0.16987057 65 33
3.9114554 0.15939426 -0.29776061 40 21
3.9252315 0.15926377 -0.24420421 44 25
3.8905411 -0.070954181 -0.39092082 56 14
3.9282594 0.15938538 -0.18983477 42 30
3.9106092 -0.072022282 -0.33768365 33 18
3.9505279 0.15958919 -0.13612281 46 38
3.95555 0.27574968 -0.088476032 26 45
3.8679571 0.15493488 -0.48106703 31 9
3.9763997 0.27650294 -0.033780988 34 53
3.8868408 0.15568343 -0.4043757 43 13
3.8971095 0.15540925 -0.35098052 42 17
3.8426929 0.26587579 -0.51251769 36 8
3.8732777 0.037833393 -0.4609808 53 10
3.9219987 0.26860082 -0.19663319 17 29
3.9393392 0.26978603 -0.14209498 40 37
3.8171871 0.37374017 -0.55764401 38 7
3.9636426 0.50613338 -0.047688778 33 51
3.8638942 0.60926884 -0.27032804 37 23
3.8552063 0.37746799 -0.41620827 31 12
