# .PCD v0.7 - Point Cloud Data file format
VERSION 0.7
FIELDS x y z intensity ring
SIZE 4 4 4 4 2
TYPE F F F F U
COUNT 1 1 1 1 1
WIDTH 1213
HEIGHT 1
VIEWPOINT 0 0 0 1 0 0 0
POINTS 1213
DATA ascii
4.1973648 0.23220901 -0.13753028 41 39
4.2350392 0.35872957 -0.087537386 45 46
4.0955939 0.22592685 -0.48841304 50 10
4.1885791 0.47850922 -0.21100254 40 29
4.2243142 0.22480956 -0.07980182 31 47
4.1448054 0.34310773 -0.31651416 48 21
4.2350049 0.2253717 -0.021283915 45 55
4.1637897 0.3439402 -0.25985834 43 25
4.0940013 0.09665475 -0.41160178 48 14
4.2449174 0.22514999 0.037517972 46 63
4.1819353 0.34543201 -0.20273381 45 30
4.1093893 0.096286349 -0.35504526 49 18
4.2043338 0.34653473 -0.14532499 49 38
4.1238832 0.095892608 -0.2995635 44 22
4.1376467 0.096200138 -0.24303371 37 26
4.1606312 0.095987156 -0.18662964 39 32
4.0999408 0.33652964 -0.42785558 42 13
4.1728435 0.095529228 -0.12931891 43 40
4.130373 0.33828986 -0.37314296 47 17
4.1992354 0.096109726 -0.071963035 30 48
4.2148471 0.095717102 -0.013861966 42 56
4.2046361 0.095494293 0.0443951 28 64
4.1758747 0.21641594 -0.19476885 49 31
4.1981502 0.21755606 -0.13753028 45 39
4.2312832 0.34354174 -0.087433554 42 46
4.0963569 0.21162918 -0.48841304 46 10
4.1902242 0.46388543 -0.21100254 42 29
4.2076731 0.46581489 -0.15243906 39 37
4.2200804 0.20981751 -0.079706714 43 47
4.145978 0.3286376 -0.31651416 42 21
4.2307715 0.21034227 -0.021258608 46 55
4.1649647 0.32940373 -0.25985834 42 25
4.0992875 0.082458943 -0.41210622 46 14
4.2456775 0.2103311 0.037517972 43 63
4.1781368 0.3304404 -0.20249043 42 30
4.1097002 0.081941321 -0.35504526 46 18
4.2055173 0.33185676 -0.14532499 47 38
4.1192079 0.081403002 -0.29919815 46 22
4.1329675 0.081662402 -0.24273804 44 26
4.0866756 0.32108924 -0.50969452 40 9
4.1559467 0.081369989 -0.18640369 45 32
4.1110053 0.32299122 -0.42889917 46 13
4.1681542 0.080870256 -0.12916271 42 40
4.1265635 0.32348287 -0.37269065 43 17
4.1995454 0.081451073 -0.071963035 34 48
4.2051578 0.080820709 -0.013828804 42 56
4.2249398 0.081183277 0.044608027 29 64
4.1716151 0.20160021 -0.19453418 43 31
4.1938915 0.20266242 -0.13736537 48 39
4.2274728 0.32838443 -0.087329708 25 46
4.0921121 0.19709335 -0.48781666 47 10
4.2432346 0.32960281 -0.028724998 35 54
4.186852 0.44872445 -0.21075045 39 29
4.2092733 0.45112452 -0.15243906 49 37
4.2157931 0.19485776 -0.079611592 40 47
4.1421289 0.3137888 -0.31613147 34 21
4.2314801 0.19557284 -0.021258608 46 55
4.1611133 0.31448916 -0.25954527 37 25
4.0896025 0.06799297 -0.41109735 46 14
4.2363963 0.19505602 0.037428964 41 63
4.179265 0.31585398 -0.20249043 37 30
4.1049809 0.067517929 -0.35461125 42 18
4.1966839 0.31642714 -0.14497773 46 38
4.1144805 0.066947207 -0.29883283 45 22
4.1332269 0.067235157 -0.24273804 41 26
4.1075611 0.30829969 -0.5121839 34 9
4.1562057 0.066862531 -0.18640369 42 32
4.1071496 0.30826893 -0.42837736 46 13
4.1684113 0.066320181 -0.12916271 42 40
4.1326337 0.30944642 -0.37314296 30 17
4.1948051 0.066716388 -0.071876645 42 48
4.2054143 0.066141479 -0.013828804 42 56
4.2002015 0.066064142 0.04434187 37 64
4.167304 0.18681686 -0.1942995 41 31
4.1895814 0.18780118 -0.13720046 43 39
4.2236071 0.31325796 -0.087225869 13 46
4.0878158 0.18258974 -0.48722035 43 10
4.2393723 0.31442121 -0.028690962 43 54
4.1933608 0.43462107 -0.21100254 14 29
4.2058525 0.43591416 -0.15225758 47 37
4.211453 0.17993049 -0.079516478 23 47
4.143199 0.29932815 -0.31613147 35 21
4.2271414 0.18059078 -0.021233298 40 55
4.1621857 0.29996225 -0.25954527 31 25
4.0898151 0.053717181 -0.41109735 43 14
4.2370515 0.18026704 0.037428964 17 63
4.1753602 0.30090663 -0.20224704 14 30
4.1051922 0.053188458 -0.35461125 25 18
4.1977634 0.30177605 -0.14497773 38 38
4.1146889 0.052584577 -0.29883283 45 22
4.1334367 0.052807089 -0.24273804 40 26
4.0838695 0.29219916 -0.50907218 25 9
4.1514187 0.052295849 -0.18617775 39 32
4.1082006 0.29393044 -0.42837736 45 13
4.1636205 0.051711746 -0.12900655 42 40
4.1287217 0.29466635 -0.37269065 34 17
4.1900134 0.052015789 -0.071790248 27 48
4.2056193 0.051461443 -0.013828804 43 56
4.1679311 0.17226911 -0.1942995 39 31
4.1852183 0.1729725 -0.13703555 37 39
4.2246752 0.29851291 -0.087225869 14 46
4.0884285 0.16831949 -0.48722035 25 10
4.2404442 0.29962113 -0.028690962 43 54
4.1898832 0.41948402 -0.21075045 14 29
4.2073483 0.42123038 -0.15225758 44 37
4.1623268 0.53857434 -0.27563655 54 24
4.2070603 0.16503592 -0.079421356 27 47
4.1442189 0.28486383 -0.31613147 20 21
4.227746 0.16583422 -0.021233298 38 55
4.1582284 0.28509223 -0.25923216 29 25
4.0850029 0.039397322 -0.41059291 34 14
4.2276626 0.16509199 0.037339952 17 63
4.1714029 0.28599042 -0.20200369 17 30
4.0953903 0.038773134 -0.35374314 23 18
4.1938057 0.28678229 -0.14480412 35 38
4.1098614 0.038179539 -0.29846755 43 22
4.1286044 0.038336568 -0.24244237 34 26
4.1046643 0.27928144 -0.51156157 28 9
4.151576 0.037804373 -0.18617775 37 32
4.1092014 0.27958837 -0.42837736 34 13
4.1587782 0.037137561 -0.12885036 42 40
4.129725 0.28025267 -0.37269065 22 17
4.180172 0.037309326 -0.071617477 14 48
4.1907735 0.036662962 -0.013779059 43 56
4.163516 0.15753365 -0.19406484 26 31
4.1857967 0.15836231 -0.13703555 40 39
4.2256913 0.28376421 -0.087225869 17 46
4.0889912 0.15404719 -0.48722035 25 10
4.2364755 0.2844843 -0.028656932 43 54
4.1863508 0.40437654 -0.21049835 17 29
4.2038193 0.40606165 -0.15207611 41 37
4.1592317 0.52341825 -0.27530605 42 24
4.2026143 0.15017419 -0.07932625 20 47
4.140213 0.2700735 -0.31574875 23 21
4.2133088 0.15054952 -0.021157376 45 55
4.1542182 0.27025354 -0.25891909 23 25
4.0851154 0.025137762 -0.41059291 26 14
4.2282128 0.1503337 0.037339952 17 63
4.1723762 0.27142775 -0.20200369 20 30
4.100482 0.024502533 -0.35417721 23 18
4.1897945 0.27181983 -0.14463049 35 38
4.1099696 0.02383321 -0.29846755 40 22
4.2313046 0.39902514 -0.094892226 39 45
4.1287131 0.023924811 -0.24244237 17 26
4.1056137 0.26495177 -0.51156157 31 9
4.1466875 0.023288902 -0.1859518 20 32
4.1051893 0.26492453 -0.42785558 34 13
4.1588826 0.022620492 -0.12885036 38 40
4.1257086 0.26551762 -0.37223834 25 17
4.1802764 0.022717578 -0.071617477 17 48
4.1958761 0.022056034 -0.013795641 41 56
4.1640401 0.14299929 -0.19406484 20 31
4.1813293 0.14358188 -0.13687067 29 39
4.2166786 0.26838085 -0.087018192 17 46
4.0845428 0.13960667 -0.48662397 28 10
4.237443 0.26969451 -0.028656932 34 54
4.2573929 0.27095661 0.030268986 36 62
4.1877365 0.389761 -0.21049835 20 29
4.2052107 0.39138511 -0.15207611 43 37
4.1659856 0.50950295 -0.27563655 49 24
4.1844497 0.51028109 -0.21829714 51 28
4.1981163 0.1353455 -0.079231136 25 47
4.1361542 0.25531462 -0.315366 29 21
4.2138085 0.13584141 -0.021157376 29 55
4.1551366 0.25575098 -0.25891909 31 25
4.0802045 0.010869214 -0.41008854 31 14
4.2287121 0.13557357 0.037339952 20 63
4.1732984 0.25686181 -0.20200369 25 30
4.1005421 0.01018903 -0.35417721 25 18
4.1907177 0.25719306 -0.14463049 40 38
4.1050415 0.0094796307 -0.2981022 25 22
4.2376499 0.38470399 -0.095004797 49 45
4.1287718 0.0095127681 -0.24244237 20 26
4.0966096 0.25001833 -0.51031691 36 9
4.1467433 0.0088141188 -0.1859518 23 32
4.1060891 0.25059313 -0.42785558 37 13
4.1489406 0.0080926754 -0.12853798 38 40
4.1266103 0.25111461 -0.37223834 30 17
4.1803303 0.008125551 -0.071617477 17 48
4.1859279 0.0074008293 -0.013762479 39 56
4.1645145 0.12846321 -0.19406484 25 31
4.1718149 0.12868373 -0.13654085 32 39
4.2175899 0.25366026 -0.087018192 20 46
4.0850048 0.12534812 -0.48662397 29 10
4.2333679 0.25460318 -0.028622895 42 54
4.2533216 0.25579563 0.030233206 43 62
4.1990199 0.3760303 -0.21100254 28 29
4.2065516 0.3767038 -0.15207611 43 37
4.1627841 0.49436885 -0.27530605 48 24
4.1911645 0.4962593 -0.21855795 42 28
4.1985636 0.12069052 -0.079231136 25 47
4.1370206 0.24087518 -0.315366 35 21
4.2142577 0.12113164 -0.021157376 41 55
4.156004 0.2412453 -0.25891909 41 25
4.0802174 -0.003373991 -0.41008854 33 14
4.2291594 0.12081178 0.037339952 23 63
4.1741691 0.24229272 -0.20200369 30 30
4.095572 -0.0041156025 -0.35374314 23 18
4.1915898 0.24256316 -0.14463049 49 38
4.1050491 -0.004850266 -0.2981022 31 22
4.2290072 0.36904165 -0.09477967 49 45
4.1237879 -0.004889512 -0.2421467 25 26
4.1024098 0.23599994 -0.51093924 48 9
4.1417546 -0.0056500155 -0.18572587 28 32
4.1069388 0.23625869 -0.42785558 52 13
4.1489439 -0.006390457 -0.12853798 43 40
4.1224909 0.23642537 -0.37178609 35 17
4.1803336 -0.006467157 -0.071617477 20 48
4.159945 0.11379221 -0.19383019 31 31
4.1772346 0.11425402 -0.13670576 41 39
4.2134581 0.23865579 -0.086914353 25 46
4.0854173 0.11108802 -0.48662397 32 10
4.234231 0.23982443 -0.028622895 43 54
4.2491961 0.24066636 0.030197427 43 62
4.1953316 0.36094326 -0.21075045 31 29
4.2028627 0.36159021 -0.15189464 43 37
4.1454105 0.47763479 -0.33210415 51 20
4.1644845 0.47983497 -0.27530605 50 24
4.1879106 0.48105592 -0.21829714 42 28
4.1939611 0.10591105 -0.079136014 30 47
4.137836 0.22643282 -0.315366 50 21
4.2096558 0.10629737 -0.021132067 45 55
4.1568208 0.22673666 -0.25891909 49 25
4.0801811 -0.017616587 -0.41008854 40 14
4.2195592 0.10580422 0.037250943 28 63
4.1700029 0.22745056 -0.20176031 32 30
4.1005135 -0.018438742 -0.35417721 25 18
4.1924109 0.22793031 -0.14463049 53 38
4.1000204 -0.01915168 -0.29773688 40 22
4.2302699 0.3542774 -0.09477967 43 45
4.1237454 -0.019284189 -0.2421467 30 26
4.0982552 0.22141272 -0.51031691 53 9
4.1467042 -0.020136166 -0.1859518 31 32
4.1077385 0.22192135 -0.42785558 49 13
4.1438994 -0.02084328 -0.12838182 36 40
4.123291 0.22203374 -0.37178609 48 17
4.1702871 -0.020999869 -0.07144469 23 48
4.1603165 0.09927059 -0.19383019 36 31
4.1776075 0.099672042 -0.13670576 48 39
4.2192578 0.22420999 -0.087018192 25 46
4.0857806 0.096826591 -0.48662397 46 10
4.2350421 0.22504275 -0.028622895 46 54
4.2450171 0.22556899 0.030161647 43 62
4.1915884 0.34588653 -0.21049835 43 29
4.2040987 0.34691727 -0.15189464 43 37
4.1470528 0.46316171 -0.33210415 42 20
4.1611762 0.4647409 -0.27497554 44 24
4.1895642 0.46643445 -0.21829714 43 28
4.2071667 0.46765307 -0.16049688 23 36
4.1943054 0.091270752 -0.079136014 31 47
4.1386013 0.2119877 -0.315366 45 21
4.2100015 0.091602273 -0.021132067 49 55
4.1526036 0.21197282 -0.25860602 43 25
4.0751195 -0.031815555 -0.40958413 47 14
4.2099051 0.090865143 0.037161928 31 63
4.1657829 0.21264046 -0.20151691 43 30
4.0954437 -0.032707758 -0.35374314 43 18
4.1831999 0.21279077 -0.14428324 49 38
4.0999289 -0.033463307 -0.29773688 48 22
4.2314806 0.33950883 -0.09477967 41 45
4.1186624 -0.033633333 -0.24185103 36 26
4.0940475 0.20685737 -0.50969452 43 9
4.2424178 0.33963978 -0.036090069 36 53
4.1366196 -0.034518342 -0.18549992 36 32
4.1035213 0.20733233 -0.4273338 44 13
4.1438007 -0.035308059 -0.12838182 43 40
4.1240406 0.20763943 -0.37178609 45 17
4.1751871 -0.035603873 -0.07153108 23 48
4.1556439 0.08464928 -0.19359553 41 31
4.1729336 0.084990315 -0.13654085 53 39
4.2150216 0.20923473 -0.086914353 30 46
4.0860934 0.082563959 -0.48662397 42 10
4.2308078 0.21001232 -0.028588861 48 54
4.2407851 0.2105038 0.030125869 41 62
4.1877933 0.33086044 -0.21024626 44 29
4.2349997 0.20947783 0.088796623 36 69
4.2003036 0.33184719 -0.15171316 41 37
4.1436887 0.4481464 -0.33170399 43 20
4.1677332 0.45074993 -0.27530605 42 24
4.186202 0.45127147 -0.21803632 42 28
4.2038054 0.45242918 -0.1603058 43 36
4.1945987 0.076629333 -0.079136014 44 47
4.134336 0.19730426 -0.31498328 42 21
4.2052965 0.076817945 -0.021106761 50 55
4.1483331 0.19724116 -0.25829291 43 25
4.0749841 -0.046040181 -0.40958413 53 14
4.2201948 0.076343805 0.037250943 36 63
4.1615119 0.19786264 -0.20127353 43 30
4.095304 -0.047003325 -0.35374314 48 18
4.1889091 0.19842193 -0.14445686 47 38
4.0997868 -0.04777452 -0.29773688 46 22
4.2276554 0.32435441 -0.094667099 14 45
4.1135292 -0.047947221 -0.24155539 47 26
4.0947452 0.19256522 -0.50969452 40 9
4.2385921 0.32444793 -0.036047306 43 53
4.1364741 -0.048957631 -0.18549992 46 32
4.1042204 0.1930071 -0.4273338 43 13
4.1486497 -0.049836949 -0.12853798 42 40
4.1197662 0.19301146 -0.37133378 43 17
4.1700387 -0.050113216 -0.07144469 25 48
4.1509199 0.070061795 -0.19336087 45 31
4.1682076 0.070342429 -0.13637593 49 39
4.2157264 0.19452028 -0.086914353 23 46
4.0863571 0.068300329 -0.48662397 48 10
4.2315154 0.19524276 -0.028588861 43 54
4.2364998 0.19547084 0.03009009 40 62
4.1889224 0.31624028 -0.21024626 40 29
4.2506857 0.19537655 0.089113377 46 69
4.1964531 0.31680784 -0.15153168 41 37
4.1153922 0.43128031 -0.38701093 43 16
4.1452279 0.43367949 -0.33170399 14 20
4.164319 0.43567932 -0.27497554 39 24
4.1927185 0.43717468 -0.21829714 31 28
4.2103291 0.43827039 -0.16049688 38 36
4.1898417 0.061916314 -0.0790409 40 47
4.1300197 0.18265323 -0.31460059 42 21
4.2005396 0.062067561 -0.021081453 43 55
4.1440115 0.18254191 -0.25797984 39 25
4.0698247 -0.060186122 -0.4090797 49 14
4.2054381 0.061402675 0.037117425 43 63
4.1621771 0.18333505 -0.20127353 39 30
4.0851545 -0.061140105 -0.35287508 40 18
4.1845837 0.18358159 -0.14428324 47 38
4.0946093 -0.062005091 -0.29737154 46 22
4.2237768 0.30923077 -0.094554536 14 45
4.1133366 -0.062305827 -0.24155539 50 26
4.0953918 0.17827073 -0.50969452 39 9
4.2396984 0.30965048 -0.036047306 41 53
4.1312833 -0.063315243 -0.18527396 42 32
4.0999007 0.17846519 -0.42681199 36 13
4.1434536 -0.064236157 -0.12838182 45 40
4.1154399 0.17841589 -0.37088147 34 17
4.1511393 0.055571947 -0.19336087 42 31
4.1684279 0.055792235 -0.13637593 43 39
4.2063904 0.17938127 -0.086706668 14 46
4.0766425 0.053911101 -0.48543125 46 10
4.2271752 0.18025969 -0.028554825 43 54
4.2321606 0.18047036 0.03005431 29 62
4.18502 0.30125839 -0.20999417 14 29
4.241353 0.18011729 0.088902213 38 69
4.1925502 0.30179948 -0.15135022 40 37
4.1168723 0.41691226 -0.38701093 23 16
4.141758 0.41870537 -0.33130386 17 20
4.160851 0.42063802 -0.27464503 31 24
4.1892505 0.42203552 -0.21803632 14 28
4.206862 0.42307028 -0.1603058 45 36
4.1850338 0.047237445 -0.078945786 20 47
4.1256504 0.1680347 -0.31421784 37 21
4.2007303 0.047404565 -0.021081453 48 55
4.1446233 0.16807549 -0.25797984 32 25
4.0695901 -0.074392088 -0.4090797 45 14
4.1578021 0.16860479 -0.20103018 14 30
4.0849161 -0.075399578 -0.35287508 35 18
4.1802058 0.16877387 -0.14410962 39 38
4.0893826 -0.076200098 -0.29700625 47 22
4.2198439 0.29413822 -0.094441965 14 45
4.1081038 -0.0765661 -0.24125972 47 26
4.091032 0.16377755 -0.50907218 23 9
4.2357664 0.29450321 -0.036004547 38 53
4.1310368 -0.077735722 -0.18527396 41 32
4.1004987 0.16415279 -0.42681199 48 13
4.1332107 -0.078500248 -0.12806945 41 40
4.1110616 0.16385287 -0.37042919 20 17
4.0997667 0.28362677 -0.54712927 46 8
4.1463137 0.041035235 -0.1931262 40 31
4.1586037 0.041148923 -0.13604614 39 39
4.2019963 0.16450353 -0.086602829 17 46
4.0768056 0.039680634 -0.48543125 42 10
4.2277784 0.165503 -0.028554825 42 54
4.2277684 0.16550261 0.030018531 13 62
4.1810637 0.28630754 -0.20974207 14 29
4.2319655 0.16492558 0.088691033 39 69
4.1935782 0.2871629 -0.15135022 40 37
4.1183028 0.40253919 -0.38701093 20 16
4.1431942 0.40424541 -0.33130386 20 20
4.1672592 0.40659651 -0.27497554 24 24
4.1857281 0.40692595 -0.21777551 17 28
4.2033405 0.40789989 -0.16011475 43 36
4.2301059 0.40975544 -0.10224678 10 44
4.1801739 0.032592889 -0.078850672 17 47
4.1262116 0.15363248 -0.31421784 23 21
4.1908703 0.032669429 -0.021030836 43 55
4.1401973 0.15342416 -0.25766674 31 25
4.064332 -0.088484287 -0.40857527 40 14
4.1583652 0.15409034 -0.20103018 17 30
4.0746684 -0.089430377 -0.35200697 23 18
4.1757765 0.153999 -0.14393598 44 38
4.0841064 -0.090359367 -0.29664093 43 22
4.2208447 0.27940643 -0.094441965 23 45
4.1078115 -0.090905599 -0.24125972 39 26
4.091579 0.1494962 -0.50907218 23 9
4.2317791 0.27938706 -0.035961784 23 53
4.1307406 -0.092155255 -0.18527396 38 32
4.0960779 0.1496588 -0.42629027 39 13
4.2518768 0.27996603 0.022859339 35 61
4.1429043 -0.093161114 -0.12838182 43 40
4.1116085 0.14950159 -0.37042919 35 17
4.1007323 0.26931417 -0.54712927 43 8
4.1464319 0.026561646 -0.1931262 20 31
4.1587224 0.026632436 -0.13604614 42 39
4.1975489 0.14965862 -0.086498991 20 46
4.0769196 0.025449686 -0.48543125 28 10
4.2133408 0.1502156 -0.028452722 42 54
4.2233243 0.15056773 0.029982755 14 62
4.1770549 0.27138808 -0.20948997 17 29
4.227519 0.14997691 0.088585451 28 69
4.1895685 0.27219954 -0.15116873 37 37
4.1196828 0.38816118 -0.38701093 31 16
4.1445799 0.38978049 -0.33130386 23 20
4.1636858 0.39157981 -0.27464503 27 24
4.1871228 0.39231256 -0.21777551 17 28
4.2047386 0.39322495 -0.16011475 37 36
4.2315102 0.39498711 -0.10224678 41 44
4.1802621 0.018001158 -0.078850672 17 47
4.1217403 0.13906221 -0.31383511 23 21
4.1959586 0.018058691 -0.021056144 45 55
4.140708 0.13897124 -0.25766674 25 25
4.0590262 -0.10254072 -0.40807089 31 14
4.1588778 0.13957399 -0.20103018 20 30
4.0743313 -0.10365307 -0.35200697 28 18
4.1762886 0.13942187 -0.14393598 38 38
4.083766 -0.10461501 -0.29664093 40 22
4.2168059 0.26435912 -0.094329409 25 45
4.1024799 -0.10511159 -0.24096406 23 26
4.0871177 0.1350511 -0.50844991 29 9
4.232729 0.26461369 -0.035961784 32 53
4.125401 -0.10644031 -0.18504801 20 32
4.1015449 0.13552214 -0.42681199 34 13
4.2528281 0.2651225 0.022859339 42 61
4.1325622 -0.10735335 -0.12806945 41 40
4.1121058 0.13514848 -0.37042919 25 17
4.0917549 0.25438461 -0.54579806 26 8
4.1464996 0.012087735 -0.1931262 23 31
4.1537929 0.012104284 -0.13588123 34 39
4.1930494 0.13484675 -0.086395144 20 46
4.0720191 0.011208029 -0.48483494 29 10
4.2138395 0.13550738 -0.028452722 30 54
4.223824 0.13582465 0.029982755 17 62
4.1779766 0.25680578 -0.20948997 23 29
4.2380104 0.135535 0.088796623 23 69
4.1855059 0.25726762 -0.15098725 35 37
4.0953665 0.37216958 -0.44208652 55 12
4.1210127 0.3737784 -0.38701093 41 16
4.1409521 0.37486085 -0.33090374 29 20
4.1650276 0.37704343 -0.27464503 32 24
4.1934404 0.37814346 -0.21803632 20 28
4.2110615 0.37899378 -0.1603058 47 36
4.2278857 0.3797662 -0.1021255 48 44
4.1803002 0.0034092092 -0.078850672 20 47
4.122201 0.12467381 -0.31383511 29 21
4.185997 0.0034102043 -0.02100553 40 55
4.1411676 0.12451663 -0.25766674 30 25
4.0586438 -0.11670873 -0.40807089 29 14
4.1543479 0.12490781 -0.20078678 23 30
4.0739446 -0.11787451 -0.35200697 25 18
4.1767497 0.12484305 -0.14393598 41 38
4.0783916 -0.1187197 -0.29627559 32 22
4.2177029 0.2496381 -0.094329409 23 45
4.0970988 -0.11928146 -0.24066839 20 26
4.0875645 0.12078358 -0.50844991 32 9
4.2336268 0.24983709 -0.035961784 44 53
4.1200113 -0.12068921 -0.18482207 20 32
4.097023 0.12105936 -0.42629027 35 13
4.2437444 0.24968964 0.022805233 40 61
4.1125522 0.12079374 -0.37042919 28 17
4.0975647 0.24038975 -0.54646367 29 8
4.1415215 -0.0023807972 -0.19289155 23 31
4.1488113 -0.0023897034 -0.13571632 32 39
4.1934943 0.12020946 -0.086395144 23 46
4.0720334 -0.0030066054 -0.48483494 30 10
4.2092881 0.12065615 -0.028418688 42 54
4.2242723 0.12107992 0.029982755 25 62
4.1788473 0.24222036 -0.20948997 25 29
4.2134724 0.12003849 0.088268697 25 69
4.1913667 0.24294442 -0.15116873 49 37
4.0916882 0.35743859 -0.44154736 42 12
4.122292 0.35939115 -0.38701093 48 16
4.1422353 0.36040395 -0.33090374 33 20
4.1613483 0.36206943 -0.27431455 38 24
4.1947346 0.36350331 -0.21803632 25 28
4.2073812 0.36386102 -0.16011475 49 36
4.2291856 0.36500579 -0.1021255 46 44
4.2130971 0.50076222 -0.16822124 20 35
4.1752872 -0.011166785 -0.078755558 23 47
4.1176271 0.1101525 -0.31345236 34 21
4.1365891 0.10992988 -0.25735369 40 25
4.0582113 -0.13087533 -0.40807089 32 14
4.1547585 0.11040567 -0.20078678 29 30
4.0784869 -0.13226055 -0.35244104 28 18
4.1721644 0.11013278 -0.14376235 52 38
4.0829363 -0.1331223 -0.29664093 31 22
4.2135577 0.23463675 -0.094216846 28 45
4.1016464 -0.1337495 -0.24096406 25 26
4.0879607 0.1065146 -0.50844991 38 9
4.2294812 0.23478097 -0.035919026 52 53
4.109581 -0.13473356 -0.18437019 28 32
4.0974207 0.10675735 -0.42629027 45 13
4.2445903 0.2348747 0.022805233 41 61
4.1079707 0.10631064 -0.36997688 33 17
4.0835347 0.22526819 -0.54446679 45 8
4.1364942 -0.016813857 -0.19265689 29 31
4.1437812 -0.016848199 -0.13555142 42 39
4.1938887 0.1055707 -0.086395144 28 46
4.0670338 -0.017196376 -0.48423856 31 10
4.2096839 0.10596225 -0.028418688 46 54
4.2146721 0.1060859 0.029911196 28 62
4.1846538 0.22790289 -0.20974207 30 29
4.1921892 0.22831234 -0.15116873 47 37
4.1028185 0.34398571 -0.44262564 50 12
4.1235218 0.34499943 -0.38701093 49 16
4.1434684 0.34594265 -0.33090374 43 20
4.1625872 0.34754139 -0.27431455 44 24
4.1910019 0.34844437 -0.21777551 28 28
4.2036467 0.34875858 -0.15992367 51 36
4.2304335 0.35024098 -0.1021255 51 44
4.209856 0.48547846 -0.16802144 55 35
4.1602259 -0.025639109 -0.078470208 25 47
4.1179862 0.095778629 -0.31345236 49 21
4.1319585 0.095376596 -0.25704059 38 25
4.0577297 -0.14504033 -0.40807089 38 14
4.1501255 0.095788874 -0.2005434 33 30
4.0780005 -0.14649631 -0.35244104 30 18
4.1675277 0.095456034 -0.14358872 54 38
4.0774632 -0.14718913 -0.29627559 36 22
4.2143512 0.21992727 -0.094216846 29 45
4.0911784 -0.14769684 -0.24037275 31 26
4.0833483 0.092134334 -0.50782752 54 9
4.2302752 0.22001591 -0.035919026 44 53
4.1140771 -0.14926349 -0.18459614 30 32
4.0927968 0.092343807 -0.42576849 47 13
4.2453842 0.22005688 0.022805233 40 61
4.1083164 0.091970503 -0.36997688 43 17
4.0842962 0.2110126 -0.54446679 42 8
4.1414046 -0.03129378 -0.19289155 34 31
4.1436973 -0.031312589 -0.13555142 48 39
4.1942315 0.090930656 -0.086395144 28 46
4.0719132 -0.031434454 -0.48483494 44 10
4.2100282 0.091267072 -0.028418688 48 54
4.2150168 0.091373302 0.029911196 33 62
4.1704621 0.2125338 -0.20898579 42 29
4.1879706 0.2134238 -0.15098725 43 37
4.0940843 0.32886475 -0.44154736 33 12
4.124701 0.33060357 -0.38701093 48 16
4.14465 0.33147714 -0.33090374 41 20
4.1588011 0.33261073 -0.27398404 45 24
4.1822381 0.33301905 -0.21725391 38 28
4.2048383 0.33408296 -0.15992367 51 36
4.2316303 0.33547184 -0.1021255 45 44
4.2476025 0.33674008 -0.042769153 34 52
4.211525 0.47078034 -0.16802144 32 35
4.1701088 -0.040263806 -0.078660436 29 47
4.1182952 0.081403591 -0.31345236 50 21
4.132266 0.080952793 -0.25704059 46 25
4.0571985 -0.15920357 -0.40807089 52 14
4.1454411 0.081205778 -0.20030002 41 30
4.0724864 -0.16052952 -0.35200697 32 18
4.1678352 0.080908068 -0.14358872 51 38
4.0769243 -0.16142121 -0.29627559 49 22
4.2100997 0.20497262 -0.094104275 42 45
4.0956249 -0.16217884 -0.24066839 35 26
4.0836444 0.077880234 -0.50782752 52 9
4.2260227 0.2050065 -0.035876263 43 53
4.1035495 -0.16321726 -0.18414424 30 32
4.0930939 0.078056723 -0.42576849 45 13
4.2411332 0.20499566 0.022778181 39 61
4.1036348 0.077537127 -0.3695246 48 17
4.0800581 0.19651671 -0.54380125 42 8
4.1312814 -0.045632981 -0.19242223 42 31
4.1435628 -0.045776606 -0.13555142 49 39
4.1945233 0.076289497 -0.086395144 28 46
4.0668144 -0.045588978 -0.48423856 48 10
4.2053223 0.076481767 -0.028384656 45 54
4.2253084 0.076837614 0.029982755 42 62
4.1711788 0.19797489 -0.20898579 44 29
4.1836987 0.19856751 -0.15080579 43 37
4.1051197 0.31533444 -0.44262564 50 12
4.1208658 0.31582263 -0.38654125 43 16
4.1408124 0.316627 -0.33050364 36 20
4.1599369 0.31809181 -0.27398404 42 24
4.1833754 0.31841823 -0.21725391 43 28
4.1960149 0.31864536 -0.15954153 43 36
4.2277913 0.32032037 -0.1020042 41 44
4.2387805 0.32115442 -0.042667922 30 52
4.2081757 0.45553699 -0.16782165 34 35
4.1549468 -0.054613169 -0.078375094 30 47
4.1135697 0.066948384 -0.31306964 45 21
4.1325235 0.066528 -0.25704059 44 25
4.0466785 -0.1729309 -0.40706205 54 14
4.1457 0.066734992 -0.20030002 43 30
4.0619488 -0.1743079 -0.35113892 49 18
4.1630964 0.066281512 -0.14341511 45 38
4.0713539 -0.1754321 -0.29591027 49 22
4.2107897 0.1902754 -0.094104275 37 45
4.0850611 -0.17603536 -0.24007708 45 26
4.0789309 0.063549846 -0.50720519 49 9
4.2267122 0.19025367 -0.035876263 44 53
4.0883689 0.063693173 -0.42524669 47 13
4.231833 0.18974341 0.022724075 38 61
4.0989013 0.063137546 -0.36907232 44 17
4.0807195 0.18227346 -0.54380125 40 8
4.1310968 -0.060053561 -0.19242223 45 31
4.1433778 -0.060240056 -0.13555142 53 39
4.1897655 0.061575871 -0.086291306 38 46
4.0666308 -0.059784532 -0.48423856 41 10
4.2005644 0.06173043 -0.028350621 42 54
4.2105527 0.061873399 0.029875414 41 62
4.1668558 0.18319486 -0.20873369 40 29
4.1843667 0.18396246 -0.15080579 43 37
4.164382 0.55294502 -0.29050696 95 23
4.1061954 0.30100301 -0.44262564 39 12
4.1779938 0.55401909 -0.23288429 71 27
4.121943 0.30143616 -0.38654125 40 16
4.1418929 0.3021709 -0.33050364 17 20
4.1560464 0.30320531 -0.27365354 41 24
4.1844616 0.30381361 -0.21725391 34 28
4.1971011 0.30399659 -0.15954153 42 36
4.2238979 0.30519986 -0.10188291 17 44
4.2448626 0.30671734 -0.042718537 39 52
4.2097406 0.44084492 -0.16782165 41 35
4.1137781 0.05258894 -0.31306964 37 21
4.1327305 0.052102394 -0.25704059 40 25
4.0510187 -0.1872897 -0.40756646 48 14
4.1359196 0.052141361 -0.19981328 40 30
4.061316 -0.18848568 -0.35113892 39 18
4.1583056 0.051689006 -0.14324148 44 38
4.0657363 -0.18940608 -0.29554498 48 22
4.2064338 0.17536825 -0.093991704 14 45
4.0794363 -0.19005693 -0.23978141 44 26
4.0741668 0.049253322 -0.50658286 43 9
4.2223554 0.17529181 -0.035833504 39 53
4.0885663 0.049421716 -0.42524669 43 13
4.2374649 0.17517631 0.022751128 23 61
4.0990968 0.048829332 -0.36907232 38 17
4.0813308 0.168028 -0.54380125 40 8
4.1258683 -0.074380152 -0.19218755 42 31
4.1381459 -0.074609458 -0.13538653 49 39
4.1799579 0.046842299 -0.086083628 22 46
4.0614338 -0.073885791 -0.48364219 49 10
4.2007542 0.047067344 -0.028350621 42 54
4.2157426 0.047229547 0.029911196 40 62
4.1674695 0.16864869 -0.20873369 36 29
4.1799908 0.16915378 -0.15062432 42 37
4.1662874 0.53840524 -0.29050696 96 23
4.1072206 0.28666785 -0.44262564 29 12
4.1848531 0.54007393 -0.23316252 95 27
4.1279364 0.2873925 -0.38701093 20 16
4.1429224 0.2877112 -0.33050364 17 20
4.1570792 0.28869617 -0.27365354 45 24
4.1805143 0.28886041 -0.21699309 17 28
4.1931529 0.28899997 -0.15935048 41 36
4.2249379 0.29045382 -0.10188291 13 44
4.2359319 0.29121104 -0.04261731 39 52
4.2062826 0.42564258 -0.16762187 41 35
4.2280955 0.42785826 -0.10960101 46 43
4.1039672 0.038140107 -0.3123042 33 21
4.1278973 0.037632611 -0.25672752 34 25
4.0453725 -0.2011776 -0.40706205 48 14
4.1410708 0.037747577 -0.20005666 14 30
4.0606332 -0.20266116 -0.35113892 41 18
4.1584606 0.037173495 -0.14324148 43 38
4.0650501 -0.20359699 -0.29554498 51 22
4.2020254 0.16049387 -0.093879148 26 45
4.0837326 -0.20454994 -0.24007708 46 26
4.0792751 0.035072219 -0.50720519 23 9
4.2179461 0.16036265 -0.035790741 38 53
4.0887141 0.035149653 -0.42524669 46 13
4.2330542 0.16019528 0.022724075 17 61
4.0942626 0.034480538 -0.36862001 34 17
4.0818925 0.15378046 -0.54380125 41 8
4.1255841 -0.08878167 -0.19218755 31 31
4.1228719 -0.088721544 -0.13489179 48 39
4.175097 0.032214593 -0.085979789 14 46
4.061151 -0.088062383 -0.48364219 46 10
4.1958928 0.032367043 -0.028316585 40 54
4.1630425 0.15391661 -0.20848159 20 29
4.1755624 0.15437789 -0.15044284 41 37
4.1582441 0.52260864 -0.28981113 97 23
4.1081972 0.27232924 -0.44262564 26 12
4.1768069 0.52421314 -0.23260604 48 27
4.1289144 0.27298155 -0.38701093 20 16
4.1439013 0.27324793 -0.33050364 17 20
4.158062 0.27418348 -0.27365354 37 24
4.1765146 0.27393845 -0.21673228 20 28
4.1891503 0.27403459 -0.15915941 42 36
4.2209382 0.27537823 -0.10176162 22 44
4.2369227 0.27642313 -0.04261731 41 52
4.2562242 0.29036963 0.015503725 43 60
4.2077432 0.41095734 -0.16762187 33 35
4.2295637 0.41309685 -0.10960101 67 43
4.1040754 0.023814358 -0.3123042 25 21
4.1280031 0.023223331 -0.25672752 28 25
4.0446453 -0.21529734 -0.40706205 43 14
4.1411772 0.023292311 -0.20005666 20 30
4.0549273 -0.21656395 -0.35070488 25 18
4.148571 0.022606945 -0.14289422 42 38
4.0593357 -0.21751401 -0.29517964 47 22
4.1925683 0.14547965 -0.093654014 20 45
4.0680428 -0.21798861 -0.2391901 43 26
4.0744114 0.0208093 -0.50658286 23 9
4.2134824 0.14546642 -0.035747983 23 53
4.0838389 0.020853728 -0.42472491 43 13
4.2235937 0.14507617 0.022669971 14 61
4.094358 0.020188686 -0.36862001 23 17
4.0824046 0.13953106 -0.54380125 41 8
4.1252489 -0.1031821 -0.19218755 17 31
4.1375246 -0.10349711 -0.13538653 46 39
4.1801829 0.017659785 -0.086083628 17 46
4.0608187 -0.10223791 -0.48364219 42 10
4.1909804 0.017701246 -0.028282551 38 54
4.1635542 0.13938397 -0.20848159 17 29
4.1760759 0.13980155 -0.15044284 32 37
4.1649938 0.5086984 -0.29015905 97 23
4.1041613 0.25767514 -0.44208652 30 12
4.1835661 0.51023769 -0.23288429 39 27
4.1199059 0.25794387 -0.38607159 29 16
4.1398559 0.25847012 -0.33010352 20 20
4.149035 0.25904441 -0.27299255 24 24
4.1724625 0.25904801 -0.21647148 17 28
4.1900816 0.25941005 -0.15915941 36 36
4.2118959 0.26002544 -0.10151905 14 44
4.1363702 0.50078779 -0.34612432 41 19
4.232872 0.26132306 -0.042566694 32 52
4.2522225 0.27518731 0.015485398 46 60
4.2091517 0.39626706 -0.16762187 41 35
4.2260041 0.39786005 -0.10947101 34 43
4.1041331 0.0094883163 -0.3123042 23 21
4.1230693 0.0088050589 -0.25641441 25 25
4.0389028 -0.22912811 -0.40655762 33 14
4.1362391 0.0088280467 -0.19981328 20 30
4.0442009 -0.23014174 -0.34983677 25 18
4.1486249 0.0081255911 -0.14289422 38 38
4.0535731 -0.23139362 -0.29481432 43 22
4.1930504 0.13084397 -0.093654014 27 45
4.0744591 0.0065868236 -0.50658286 28 9
4.2089677 0.1306033 -0.03570522 30 53
4.0789146 0.0065922681 -0.42420316 34 13
4.2290716 0.13048574 0.022697022 20 61
4.0944033 0.0058965841 -0.36862001 27 17
4.0779138 0.12512863 -0.54313558 52 8
4.1198711 -0.11743572 -0.19195288 23 31
4.117157 -0.1173566 -0.1347269 43 39
4.17522 0.0030663703 -0.085979789 17 46
4.0554752 -0.11626665 -0.48304585 30 10
4.1910167 0.0030718865 -0.028282551 25 54
4.1640153 0.1248496 -0.20848159 23 29
4.1665483 0.12492523 -0.15007988 37 37
4.0756345 0.24160066 -0.59394896 24 7
4.1568384 0.49297553 -0.28946322 47 23
4.1050358 0.24334741 -0.44208652 37 12
4.1803651 0.49504101 -0.23260604 44 27
4.1207814 0.24356113 -0.38607159 36 16
4.203115 0.49700588 -0.17514592 31 34
4.135757 0.24372388 -0.32970336 25 20
4.1499138 0.24456 -0.27299255 31 24
4.1733418 0.24448185 -0.21647148 17 28
4.1959496 0.24507433 -0.15935048 40 36
4.2177677 0.24561282 -0.10164034 23 44
4.1380925 0.48634616 -0.34612432 97 19
4.2287664 0.24625473 -0.042516079 37 52
4.2481661 0.2600365 0.015467072 45 60
4.2105093 0.38157198 -0.16762187 41 35
4.2273669 0.38310614 -0.10947101 46 43
4.1041412 -0.0048384112 -0.3123042 28 21
4.1180844 -0.0055790553 -0.25610134 28 25
4.033114 -0.24292147 -0.40605325 27 14
4.1362448 -0.005610751 -0.19981328 20 30
4.0433726 -0.24425724 -0.34983677 23 18
4.1486278 -0.0063564382 -0.14289422 42 38
4.0577183 -0.24584799 -0.29517964 35 22
4.1934819 0.11620669 -0.093654014 25 45
4.0744572 -0.0076363003 -0.50658286 32 9
4.2043996 0.11577348 -0.035662461 42 53
4.0789127 -0.0076464098 -0.42420316 41 13
4.2245035 0.11558663 0.022669971 25 61
4.0943995 -0.0083961571 -0.36862001 28 17
4.0733719 0.11075924 -0.54246998 48 8
4.1144447 -0.13165307 -0.19171825 23 31
4.1752052 -0.011508467 -0.085979789 20 46
4.0550447 -0.1304222 -0.48304585 32 10
4.1860023 -0.011542386 -0.028248519 33 54
4.1644263 0.11031371 -0.20848159 25 29
4.1719551 0.11051217 -0.15026136 49 37
4.0715141 0.22709644 -0.59322292 53 7
4.1634889 0.47903579 -0.28981113 49 23
4.1058598 0.22901666 -0.44208652 51 12
4.1820674 0.4804458 -0.23260604 47 27
4.1166363 0.22889845 -0.38560191 49 16
4.204824 0.48233119 -0.17514592 98 34
4.1316061 0.22900945 -0.32930323 32 20
4.1507421 0.23007263 -0.27299255 47 24
4.1741695 0.2299127 -0.21647148 25 28
4.1917901 0.23015167 -0.15915941 47 36
4.2136078 0.23061477 -0.10151905 28 44
4.1348152 0.47133103 -0.34570679 37 19
4.2296009 0.23149207 -0.042516079 45 52
4.2490478 0.24520604 0.015467072 45 60
4.2068391 0.36643681 -0.16742209 43 35
4.2286787 0.36834753 -0.10947101 48 43
4.0991144 -0.019139277 -0.31192148 32 21
4.1180401 -0.019953817 -0.25610134 37 25
4.027277 -0.25667715 -0.40554881 43 14
4.1362 -0.020048903 -0.19981328 28 30
4.0424957 -0.25836977 -0.34983677 25 18
4.1435838 -0.020810779 -0.14272061 53 38
4.026978 -0.25806934 -0.2929877 25 22
4.1888647 0.10144762 -0.093541451 30 45
4.0694451 -0.021830192 -0.50596052 35 9
4.2047782 0.10109669 -0.035662461 49 53
4.0838332 -0.021913063 -0.42472491 42 13
4.219883 0.10072098 0.022642918 32 61
4.0943451 -0.022688225 -0.36862001 31 17
4.0786877 0.096656606 -0.54313558 43 8
4.1239419 -0.14637516 -0.19218755 29 31
4.1701407 -0.026049428 -0.085875943 25 46
4.0496044 -0.14439599 -0.48244953 31 10
4.1597934 0.095662318 -0.20822951 29 29
4.1673193 0.095834419 -0.15007988 63 37
4.0772219 0.21314171 -0.59394896 41 7
4.2515955 0.34793156 -0.050940286 50 51
4.1552219 0.46338758 -0.28911531 44 23
4.1066346 0.21468316 -0.44208652 50 12
4.1787577 0.46528912 -0.2323278 40 27
4.1174102 0.21452731 -0.38560191 47 16
4.2015176 0.46709552 -0.17493741 37 34
4.132381 0.21458606 -0.32930323 43 20
4.1465383 0.21532306 -0.27266204 49 24
4.16996 0.21508287 -0.21621066 28 28
4.1875782 0.21526106 -0.15896833 49 36
4.2143879 0.21590512 -0.10151905 32 44
4.1314836 0.45634478 -0.34528926 36 19
4.2353764 0.21698304 -0.042566694 47 52
4.2448854 0.23010133 0.015448746 45 60
4.2642279 0.23115228 0.074649975 43 68
4.2080927 0.35174999 -0.16742209 46 35
4.229939 0.35358447 -0.10947101 46 43
4.0990224 -0.033447739 -0.31192148 43 21
4.1129556 -0.034284797 -0.25578827 38 25
4.0263567 -0.27073342 -0.40554881 34 14
4.1261168 -0.034399651 -0.19932652 31 30
4.0366001 -0.27213952 -0.34940276 25 18
4.143486 -0.035274461 -0.14272061 51 38
4.0509276 -0.27382904 -0.29481432 29 22
4.1891932 0.086825132 -0.093541451 31 45
4.064383 -0.035989184 -0.50533819 46 9
4.2051058 0.086418651 -0.035662461 49 53
4.0737877 -0.036076177 -0.42368138 48 13
4.2152095 0.085889004 0.022615865 35 61
4.0892615 -0.036933087 -0.3681677 39 17
4.0740457 0.082319267 -0.54246998 43 8
4.1084347 -0.16017604 -0.19148357 30 31
4.1700244 -0.04060578 -0.085875943 28 46
4.0490751 -0.15853085 -0.48244953 33 10
4.1501169 0.080947876 -0.20772532 39 29
4.1676288 0.081287175 -0.15007988 65 37
4.0730004 0.1986666 -0.59322292 43 7
4.2477989 0.33269629 -0.050880075 32 51
4.1568141 0.44888031 -0.28911531 40 23
4.1023936 0.20010418 -0.44154736 50 12
4.1803565 0.45069969 -0.2323278 36 27
4.1181345 0.20015356 -0.38560191 46 16
4.2031221 0.45242667 -0.17493741 43 34
4.1331043 0.20016006 -0.32930323 39 20
4.147264 0.20084763 -0.27266204 50 24
4.1656976 0.20028523 -0.21594985 36 28
4.1833134 0.20040265 -0.15877727 51 36
4.1426239 0.44368157 -0.40424877 96 15
4.2101226 0.20095389 -0.10139775 43 44
4.1380053 0.44245335 -0.34570679 38 19
4.2311134 0.20195849 -0.042516079 49 52
4.2456627 0.21528253 0.015448746 45 60
4.2450366 0.21525072 0.074297428 45 68
4.2092948 0.33705884 -0.16742209 46 35
4.2261648 0.33841616 -0.10934099 44 43
4.0988808 -0.047755796 -0.31192148 50 21
4.1128111 -0.048641477 -0.25578827 42 25
4.0253868 -0.28478634 -0.40554881 42 14
4.1259718 -0.048802271 -0.19932652 36 30
4.0405931 -0.28658518 -0.34983677 28 18
4.1433377 -0.049737707 -0.14272061 49 38
4.0201049 -0.28581819 -0.29262239 36 22
4.1844726 0.072116092 -0.093428895 43 45
4.0642328 -0.050176311 -0.50533819 53 9
4.2053819 0.071739569 -0.035662461 64 53
4.073637 -0.050296132 -0.42368138 47 13
4.2154837 0.071174659 0.022615865 37 61
4.0841289 -0.051142745 -0.36771542 49 17
4.0743084 0.068097703 -0.54246998 41 8
4.1178298 -0.17494667 -0.19195288 34 31
4.169857 -0.055161633 -0.085875943 31 46
4.0484972 -0.17266381 -0.48244953 46 10
4.1453805 0.066381454 -0.20747322 45 29
4.1628909 0.066659592 -0.14989842 43 37
4.073669 0.18444796 -0.59322292 35 7
4.2489347 0.31786668 -0.050880075 39 51
4.1583557 0.43436757 -0.28911531 35 23
4.1030674 0.18578294 -0.44154736 43 12
4.1819038 0.43610477 -0.2323278 31 27
4.1188073 0.18577737 -0.38560191 43 16
4.1997075 0.43723187 -0.17472893 38 34
4.1287994 0.18550728 -0.32890314 41 20
4.2365241 0.44108844 -0.11723239 6 42
4.1379719 0.18592058 -0.27200103 43 24
4.1613832 0.18551998 -0.21568903 45 28
4.1839881 0.18579894 -0.15877727 46 36
4.1342487 0.42818674 -0.40327466 72 15
4.2058048 0.1860351 -0.10127646 39 44
4.139524 0.42800629 -0.34570679 40 19
4.2317929 0.18718792 -0.042516079 43 52
4.2364001 0.19998832 0.015412095 43 60
4.2607441 0.20114061 0.074561834 45 68
4.2054648 0.32198033 -0.16722229 42 35
4.2273202 0.32366201 -0.10934099 20 43
4.0937037 -0.061985824 -0.31153873 47 21
4.107626 -0.062919185 -0.25547519 47 25
4.0243683 -0.29883584 -0.40554881 51 14
4.1207829 -0.063125871 -0.19908313 45 30
4.0445352 -0.30106208 -0.35027081 32 18
4.1381421 -0.064120986 -0.14254698 44 38
4.1797009 0.057441067 -0.093316324 30 45
4.064033 -0.064362824 -0.50533819 49 9
4.1956077 0.056925226 -0.03557694 40 53
4.0684643 -0.064434752 -0.4231596 48 13
4.2107072 0.056393124 0.022588812 41 61
4.0789466 -0.065317012 -0.36726314 45 17
4.064611 0.053745568 -0.54113883 46 8
4.1646419 -0.069631331 -0.085772112 40 46
4.0429111 -0.18656252 -0.48185316 43 10
4.1505809 0.051972851 -0.20772532 40 29
4.1630988 0.05212798 -0.14989842 41 37
4.0742879 0.1702271 -0.59322292 20 7
4.2450309 0.30267572 -0.050819859 40 51
4.1548843 0.41934553 -0.2887674 27 23
4.0987239 0.17125127 -0.44100821 42 12
4.1784344 0.4210009 -0.23204958 36 27
4.1144576 0.17119132 -0.38513222 40 16
4.1962385 0.42206642 -0.17452042 38 34
4.1294222 0.17109394 -0.32890314 25 20
4.2181473 0.4242841 -0.11667745 96 42
4.1385956 0.17147522 -0.27200103 40 24
4.1620059 0.17099293 -0.21568903 38 28
4.1796188 0.17098811 -0.1585862 43 36
4.1307669 0.41325435 -0.4027876 39 15
4.2064285 0.17135295 -0.10127646 14 44
4.1310778 0.41255742 -0.34487176 28 19
4.2224293 0.1720068 -0.042414855 40 52
4.2420678 0.18541828 0.015430422 31 60
4.2414422 0.18539086 0.074209295 40 68
4.20158 0.30693263 -0.1670225 42 35
4.2234397 0.3085379 -0.10921098 20 43
4.0884786 -0.076180317 -0.31115603 42 21
4.1073813 -0.077257089 -0.25547519 43 25
4.0183411 -0.31249139 -0.40504441 51 14
4.1205373 -0.077509694 -0.19908313 37 30
4.0484257 -0.31557 -0.35070488 37 18
4.1328974 -0.078468606 -0.14237335 44 38
4.1798759 0.042850841 -0.093316324 13 45
4.0637836 -0.078548551 -0.50533819 43 9
4.1957808 0.042279478 -0.03557694 39 53
4.0682144 -0.078635953 -0.4231596 45 13
4.2058787 0.041645803 0.022561762 37 61
4.0786939 -0.079554796 -0.36726314 40 17
4.064774 0.039557103 -0.54113883 41 8
4.0422349 -0.20067377 -0.48185316 32 10
4.1457429 0.037439857 -0.20747322 37 29
4.1582584 0.037551261 -0.14971694 40 37
4.0748577 0.15600412 -0.59322292 23 7
4.2410736 0.28751591 -0.050759643 30 51
4.156323 0.40483975 -0.2887674 20 23
4.0943298 0.15675218 -0.44046912 29 12
4.2513981 0.28747433 0.0081114126 31 59
4.1749096 0.40592659 -0.23177134 24 27
4.1100554 0.15663792 -0.38466254 23 16
4.1976862 0.40741625 -0.17452042 33 34
4.1250134 0.15648893 -0.32850301 14 20
4.2395005 0.41150144 -0.11723239 100 42
4.1391692 0.15702778 -0.27200103 43 24
4.1625772 0.15646377 -0.21568903 17 28
4.1751976 0.15621002 -0.15839514 42 36
4.1321845 0.3988328 -0.4027876 71 15
4.2020068 0.15648209 -0.10115518 17 44
4.132493 0.39813477 -0.34487176 22 19
4.2180076 0.15708001 -0.04236424 42 52
4.2376928 0.17040803 0.015412095 25 60
4.2370682 0.17038283 0.074121162 20 68
4.1976418 0.29191598 -0.16682272 40 35
4.2706084 0.17098923 0.13392127 41 72
4.2195044 0.29344475 -0.10908096 25 43
4.0832038 -0.090339065 -0.31077331 34 21
4.102098 -0.091480844 -0.25516209 34 25
4.0172262 -0.32651612 -0.40504441 51 14
4.1202416 -0.091892578 -0.19908313 17 30
4.042335 -0.32929069 -0.35027081 48 18
4.1276021 -0.092780396 -0.14219972 43 38
4.1750016 0.028226938 -0.093203753 24 45
4.0585251 -0.092618175 -0.50471586 32 9
4.1909027 0.027600922 -0.035534177 38 53
4.067915 -0.092836186 -0.4231596 42 13
4.0734129 -0.093675159 -0.36681083 30 17
4.064887 0.02536815 -0.54113883 40 8
4.0365529 -0.21451586 -0.48125678 51 10
4.1458488 0.022968283 -0.20747322 14 29
4.1533675 0.023008967 -0.14953546 40 37
4.0753775 0.14177927 -0.59322292 23 7
4.2370629 0.27238744 -0.050699435 20 51
4.157711 0.39032897 -0.2887674 23 23
4.0948524 0.14245936 -0.44046912 20 12
4.2573657 0.27295426 0.0081210118 35 59
4.176301 0.39135095 -0.23177134 23 27
4.1105776 0.14229019 -0.38466254 17 16
4.1990829 0.39276111 -0.17452042 35 34
4.1255345 0.14208899 -0.32850301 32 20
4.2160306 0.3943572 -0.11653871 43 42
4.1297193 0.14223368 -0.27134004 39 24
4.1581078 0.14176193 -0.21542825 17 28
4.1757174 0.14163493 -0.15839514 43 36
4.1186872 0.38301435 -0.40132645 25 15
4.1975312 0.14164418 -0.10103389 20 44
4.1338573 0.38370726 -0.34487176 27 19
4.2135334 0.14218621 -0.042313624 33 52
4.2332654 0.15543057 0.015393768 14 60
4.2326412 0.15540758 0.074033022 14 68
4.1936507 0.27693063 -0.16662294 34 35
4.2205029 0.27871415 -0.10908096 26 43
4.2042289 0.5258503 -0.1826869 11 33
4.0828633 -0.10459156 -0.31077331 31 21
4.1017532 -0.10579928 -0.25516209 30 25
4.0111051 -0.34011194 -0.40453997 49 14
4.109911 -0.1060129 -0.19859639 17 30
4.0510869 -0.34425175 -0.35113892 41 18
4.1272535 -0.10718784 -0.14219972 43 38
4.1750746 0.013653291 -0.093203753 17 45
4.058177 -0.1067845 -0.50471586 23 9
4.1809745 0.012942103 -0.035448655 39 53
4.0576248 -0.10676976 -0.42211607 34 13
4.0680833 -0.10775962 -0.36635852 28 17
4.0599957 0.011165916 -0.54047316 31 8
4.0308228 -0.22832067 -0.48066044 28 10
4.1459031 0.0084964316 -0.20747322 17 29
4.1534224 0.008510869 -0.14953546 31 37
4.0659585 0.12724191 -0.59177065 28 7
4.237988 0.25759566 -0.050699435 27 51
4.1540804 0.37536138 -0.28841949 29 23
4.1002927 0.12832092 -0.44100821 28 12
4.248311 0.25748286 0.0081018126 35 59
4.1826138 0.37722218 -0.23204958 29 27
4.1110492 0.12794074 -0.38466254 25 16
4.2054029 0.37855217 -0.17472893 37 34
4.1210237 0.12753251 -0.32810286 23 20
4.2173815 0.37963811 -0.11653871 46 42
4.1301908 0.12781741 -0.27134004 25 24
4.158577 0.12724657 -0.21542825 23 28
4.1661978 0.12675291 -0.15801299 33 36
4.1150432 0.36818844 -0.40083939 38 15
4.1930037 0.12683943 -0.1009126 20 44
4.1302094 0.36882865 -0.34445423 35 19
4.214004 0.12747738 -0.042313624 28 52
4.2287846 0.14048614 0.015375443 20 60
4.2331576 0.14063197 0.074033022 25 68
4.1896052 0.26197666 -0.16642314 30 35
4.211473 0.26335245 -0.10882094 28 43
4.2576838 0.391534 -0.058460288 20 50
4.2159548 0.51238561 -0.18312132 101 33
4.0824738 -0.11884278 -0.31077331 23 21
4.0963712 -0.11996838 -0.25484902 29 25
4.0198035 -0.35499564 -0.40554881 51 14
4.1095166 -0.12035853 -0.19859639 23 30
4.1218591 -0.12144487 -0.14202608 41 38
4.1700974 -0.00091935729 -0.09309119 25 45
4.0577793 -0.12094954 -0.50471586 29 9
4.180994 -0.0016528821 -0.035448655 36 53
4.0621972 -0.12108297 -0.42263782 37 13
4.0726595 -0.12211043 -0.36681083 25 17
4.0649657 -0.0030110707 -0.54113883 52 8
4.0250468 -0.2420882 -0.48006412 29 10
4.1409144 -0.0059682573 -0.20722115 22 29
4.1434336 -0.005972214 -0.14917251 50 37
4.056488 0.11277204 -0.5903185 31 7
4.2338696 0.24251294 -0.05063922 38 51
4.1553655 0.36085868 -0.28841949 37 23
4.095747 0.11386866 -0.44046912 36 12
4.2541757 0.24293886 0.0081114126 42 59
4.1789317 0.36218557 -0.23177134 40 27
4.1114707 0.11358972 -0.38466254 32 16
4.2017226 0.36343661 -0.17452042 40 34
4.1214437 0.11314669 -0.32810286 26 20
4.2186813 0.36491436 -0.11653871 47 42
4.1306119 0.11339957 -0.27134004 31 24
4.1540046 0.11259372 -0.21516743 20 28
4.1716094 0.11234455 -0.15820406 41 36
4.116303 0.35382199 -0.40083939 40 15
4.1934214 0.11220233 -0.1009126 23 44
4.1314716 0.35440931 -0.34445423 44 19
4.2044277 0.11249824 -0.042212397 38 52
4.2292495 0.12572408 0.015375443 28 60
4.213635 0.12525792 0.07368049 23 68
4.1954818 0.24764694 -0.16662294 39 35
4.2123671 0.2486501 -0.10882094 33 43
4.254045 0.37622598 -0.058391351 87 50
4.1929159 0.49471748 -0.18203522 95 33
4.0870166 -0.13325696 -0.31115603 25 21
4.0959268 -0.13426664 -0.25484902 29 25
3.978914 -0.36534926 -0.40151352 49 14
4.1090708 -0.13470267 -0.19859639 25 30
4.1700687 -0.015475708 -0.09309119 31 45
4.057333 -0.13511308 -0.50471586 32 9
4.1709633 -0.016207125 -0.035363134 34 53
4.0567808 -0.13509449 -0.42211607 36 13
4.0722089 -0.13632591 -0.36681083 29 17
4.0599747 -0.017178806 -0.54047316 40 8
4.0142689 -0.25549948 -0.47887138 29 10
4.1408687 -0.020422712 -0.20722115 28 29
4.1433878 -0.020435462 -0.14917251 49 37
4.0568566 0.098611571 -0.5903185 37 7
4.2346902 0.22773249 -0.05063922 40 51
4.1516294 0.34593418 -0.28807157 46 23
4.0961199 0.099571146 -0.44046912 51 12
4.2500052 0.22781801 0.0081018126 42 59
4.1801705 0.34759617 -0.23177134 45 27
4.1068654 0.099116564 -0.38419285 45 16
4.2694497 0.22886769 0.067338951 55 67
4.1979871 0.34835133 -0.17431191 46 34
4.1168313 0.098639444 -0.32770273 32 20
4.2199297 0.35018617 -0.11653871 46 42
4.1259952 0.098860197 -0.27100953 36 24
4.1543722 0.098092847 -0.21516743 25 28
4.1719766 0.097782239 -0.15820406 47 36
4.1175132 0.33945128 -0.40083939 45 15
4.1887898 0.097446986 -0.10079131 29 44
4.1376491 0.34039736 -0.34487176 48 19
4.2047949 0.09782137 -0.042212397 47 52
4.219666 0.11069695 0.015338792 36 60
4.2140465 0.11054882 0.07368049 29 68
4.1963205 0.23300046 -0.16662294 43 35
4.2132092 0.23394468 -0.10882094 33 43
4.2453694 0.36052194 -0.058253471 99 50
4.2095041 0.4817957 -0.1826869 38 33
4.0765624 -0.14715888 -0.31039056 32 21
4.0904474 -0.14838043 -0.25453594 36 25
4.0122757 -0.38257352 -0.40504441 47 14
4.1085758 -0.14904518 -0.19859639 29 30
4.1599932 -0.029958591 -0.092866063 28 45
4.0568361 -0.14927499 -0.50471586 36 9
4.0562844 -0.14925447 -0.42211607 38 13
4.0667319 -0.1503538 -0.36635852 32 17
4.0598898 -0.031350657 -0.54047316 43 8
4.0232587 -0.27018222 -0.48006412 30 10
4.1407723 -0.034876917 -0.20722115 23 29
4.1432915 -0.03489846 -0.14917251 63 37
4.0522299 0.084346294 -0.5895924 52 7
4.2354593 0.21294929 -0.05063922 41 51
4.1528115 0.33144018 -0.28807157 46 23
4.0964422 0.085272409 -0.44046912 49 12
4.2457809 0.21272923 0.0080922134 42 59
4.1763825 0.33260307 -0.2314931 45 27
4.1071863 0.084780321 -0.38419285 47 16
4.2552433 0.21320693 0.067100726 59 67
4.1991773 0.3336955 -0.17431191 45 34
4.1171508 0.084268413 -0.32770273 38 20
4.2161436 0.33505464 -0.11639997 45 42
4.1263151 0.084457181 -0.27100953 43 24
4.1447053 0.083388612 -0.2146458 29 28
4.1672969 0.083118431 -0.15801299 48 36
4.1186728 0.3250764 -0.40083939 46 15
4.1891046 0.082824789 -0.10079131 33 44
4.1338449 0.3255578 -0.34445423 47 19
4.2051105 0.083143309 -0.042212397 47 52
4.220027 0.09596689 0.015338792 39 60
4.1971083 0.21835116 -0.16662294 47 35
4.2140002 0.21923642 -0.10882094 36 43
4.2466021 0.34570062 -0.058253471 39 50
4.2012315 0.46598858 -0.18225242 43 33
4.0760236 -0.16138785 -0.31039056 38 21
4.0899043 -0.16265786 -0.25453594 39 25
3.9762666 -0.3931182 -0.40151352 42 14
4.0980496 -0.16298501 -0.19810961 28 30
4.159863 -0.044479497 -0.092866063 32 45
4.0562901 -0.1634351 -0.50471586 40 9
4.0557384 -0.16341266 -0.42211607 46 13
4.0661826 -0.16454843 -0.36635852 43 17
4.0548 -0.045465905 -0.53980756 42 8
4.0222912 -0.28422436 -0.48006412 30 10
4.1306381 -0.049210414 -0.20671694 33 29
4.1381478 -0.049300857 -0.14899103 64 37
4.0524998 0.070200853 -0.5895924 49 7
4.2311831 0.19792797 -0.050579008 43 51
4.1489697 0.31655946 -0.28772366 44 23
4.096715 0.070972644 -0.44046912 49 12
4.2464976 0.19790739 0.0080922134 42 59
4.1725402 0.3176406 -0.23121485 36 27
4.1024804 0.07035704 -0.38372323 46 16
4.2559619 0.19835207 0.067100726 57 67
4.1903543 0.31827259 -0.1738949 43 34
4.1124358 0.069811113 -0.3273026 43 20
4.2172875 0.32033554 -0.11639997 35 42
4.1215963 0.069967806 -0.27067903 46 24
4.1399789 0.068836734 -0.21438502 46 28
4.1625662 0.068488523 -0.15782194 49 36
4.1148214 0.31032014 -0.40035239 44 15
4.1843705 0.068119578 -0.10067002 46 44
4.1299882 0.31074893 -0.3440367 45 19
4.2053752 0.068464212 -0.042212397 49 52
4.2153368 0.081138805 0.015320465 46 60
4.1878648 0.20321108 -0.16622335 47 35
4.2097473 0.20428132 -0.10869092 48 43
4.2378139 0.33009234 -0.05811559 43 50
4.2681217 0.33247226 0.00074089225 31 58
4.1978664 0.45078301 -0.18203522 41 33
4.2298002 0.45424086 -0.12445593 83 41
4.0704546 -0.17539822 -0.31000784 46 21
4.0793405 -0.17649797 -0.25390977 54 25
4.1024456 -0.17750674 -0.19835301 30 30
4.1546836 -0.058928311 -0.0927535 46 45
4.0507383 -0.17737418 -0.50409347 54 9
