# .PCD v0.7 - Point Cloud Data file format
VERSION 0.7
FIELDS x y z intensity ring
SIZE 4 4 4 4 2
TYPE F F F F U
COUNT 1 1 1 1 1
WIDTH 1231
HEIGHT 1
VIEWPOINT 0 0 0 1 0 0 0
POINTS 1231
DATA ascii
4.2334685 0.76869714 -0.44768304 42 13
4.3172684 0.52316397 -0.13478529 43 40
4.2540441 0.77165836 -0.38942555 48 17
4.3435369 0.52632415 -0.074986689 35 48
4.3541765 0.52683318 -0.01442573 41 56
4.363884 0.52799928 0.046417899 23 64
4.3175778 0.65028733 -0.20345131 44 31
4.329854 0.65212852 -0.14330192 44 39
4.3645105 0.78850722 -0.091379486 41 46
4.2279897 0.63609564 -0.50928539 43 10
4.3204041 0.91178817 -0.22108628 33 29
4.3574972 0.64694512 -0.083130866 43 47
4.2708073 0.76315004 -0.33029231 43 21
4.3681164 0.64851511 -0.022169692 49 55
4.2898054 0.76576507 -0.27112931 41 25
4.229773 0.50065786 -0.42824742 45 14
4.3780055 0.64919633 0.039075658 42 63
4.3127847 0.76985824 -0.2117388 41 30
4.2453489 0.50173628 -0.36936864 42 18
4.3350916 0.77305102 -0.15174915 42 38
4.2599993 0.50270098 -0.3116191 43 22
4.2787805 0.50490063 -0.25308618 42 26
4.3067703 0.50741673 -0.19453765 42 32
4.2361259 0.75391495 -0.44768304 36 13
4.3141041 0.50751102 -0.1346291 42 40
4.2567115 0.75680423 -0.38942555 43 17
4.3403821 0.51057935 -0.074900307 37 48
4.3510227 0.51105201 -0.014409149 41 56
4.3657002 0.51276326 0.046417899 32 64
4.3148799 0.6344887 -0.20321664 43 31
4.3271589 0.63628662 -0.14313702 48 39
4.3573904 0.77152777 -0.091171801 37 46
4.2252712 0.62061489 -0.50868905 29 10
4.3235602 0.89670157 -0.22108628 42 29
4.335978 0.89927536 -0.15951659 39 37
4.3547802 0.63101679 -0.083035745 39 47
4.2685337 0.74737954 -0.32990959 32 21
4.3654046 0.63254964 -0.022144383 50 55
4.2924523 0.75078619 -0.27112931 37 25
4.2314949 0.48589012 -0.42824742 40 14
4.3752961 0.63319713 0.039031152 36 63
4.3105259 0.75394052 -0.21149541 38 30
4.2470741 0.48691422 -0.36936864 30 18
4.3279185 0.75619757 -0.15140191 40 38
4.2567735 0.48726496 -0.31125376 42 22
4.275558 0.4893986 -0.25279054 39 26
4.1996155 0.73231763 -0.53023165 43 9
4.2985892 0.49125451 -0.19408579 39 32
4.2387323 0.73912346 -0.44768304 33 13
4.3108835 0.49188662 -0.13447292 41 40
4.2544217 0.74108827 -0.38897324 35 17
4.3371706 0.49486306 -0.07481391 39 48
4.3478117 0.49529934 -0.014392567 40 56
4.3170681 0.61942303 -0.20321664 38 31
4.3244066 0.62047136 -0.14297213 39 39
4.3502059 0.75460786 -0.090964124 13 46
4.2274117 0.6058622 -0.50868905 23 10
4.3707433 0.75816262 -0.029950237 36 54
4.3217711 0.88060772 -0.22083421 37 29
4.3341942 0.88313746 -0.15933511 47 37
4.3520069 0.61511528 -0.082940638 23 47
4.2711167 0.73247498 -0.32990959 20 21
4.3626351 0.61661094 -0.022119075 40 55
4.2950473 0.73579812 -0.27112931 30 25
4.2282205 0.47057056 -0.42774302 43 14
4.372529 0.61722487 0.038986649 14 63
4.3131318 0.73888934 -0.21149541 14 30
4.2437963 0.47154039 -0.36893457 17 18
4.3305321 0.74108571 -0.15140191 40 38
4.2584486 0.47240308 -0.31125376 40 22
4.2772408 0.47447112 -0.25279054 32 26
4.2119274 0.71932054 -0.53147638 25 9
4.2953129 0.47570109 -0.19385983 25 32
4.2412858 0.72432309 -0.44768304 23 13
4.3076062 0.47629088 -0.13431673 35 40
4.2569823 0.72623301 -0.38897324 17 17
4.3339019 0.47917536 -0.07472752 28 48
4.349514 0.48011962 -0.014392567 41 56
4.3093104 0.60297173 -0.2027473 20 31
4.3215966 0.60468316 -0.14280722 41 39
4.3577414 0.74025345 -0.091067962 13 46
4.2245841 0.59041798 -0.50809264 23 10
4.373363 0.74290127 -0.029950237 43 54
4.3248186 0.86551654 -0.22083421 13 29
4.3372502 0.86800295 -0.15933511 43 37
4.349175 0.5992409 -0.082845517 17 47
4.2687306 0.71673775 -0.32952684 14 21
4.3598075 0.60069925 -0.022093767 39 55
4.287746 0.71915388 -0.27050313 23 25
4.2298374 0.45580849 -0.42774302 25 14
4.3697033 0.6012795 0.038942143 17 63
4.3107586 0.72300488 -0.21125202 17 30
4.2404633 0.4561955 -0.36850053 20 18
4.3281631 0.72514087 -0.15122828 42 38
4.2501545 0.45647913 -0.31052315 28 22
4.2689443 0.45848054 -0.2521992 14 26
4.2095194 0.70379752 -0.53085405 30 9
4.296947 0.46070477 -0.19385983 14 32
4.238884 0.70869571 -0.44716126 25 13
4.3042741 0.46072412 -0.13416056 33 40
4.2496681 0.70973212 -0.38806868 20 17
4.3305769 0.46351653 -0.074641123 14 48
4.3412194 0.46388009 -0.014359405 40 56
4.311389 0.58792573 -0.2027473 14 31
4.3187294 0.58892214 -0.1426423 38 39
4.3504367 0.72340131 -0.090860285 14 46
4.2266192 0.57566786 -0.50809264 23 10
4.370997 0.72681248 -0.029916201 43 54
4.3229136 0.84945267 -0.22058211 14 29
4.335351 0.85189497 -0.15915364 41 37
4.2731929 0.96872777 -0.28786501 49 24
4.3512402 0.58405578 -0.082845517 21 47
4.2662868 0.70102626 -0.32914412 20 21
4.3569221 0.58481497 -0.022068461 42 55
4.2902298 0.70418251 -0.27050313 23 25
4.2264547 0.4405295 -0.42723864 30 14
4.3717752 0.58602273 0.038942143 17 63
4.3132558 0.70795316 -0.21125202 20 30
4.2370758 0.44087958 -0.36806649 17 18
4.330668 0.71002841 -0.15122828 30 38
4.2517219 0.44164053 -0.31052315 25 22
4.2705188 0.44357637 -0.2521992 23 26
4.2168469 0.68989837 -0.53147638 41 9
4.2935605 0.44519201 -0.19363388 32 32
4.2413321 0.6938948 -0.44716126 32 13
4.3058558 0.44569662 -0.13416056 37 40
4.2521195 0.69489372 -0.38806868 29 17
4.3271952 0.44788677 -0.074554741 17 48
4.3428121 0.44872355 -0.014359405 37 56
4.3134146 0.57287258 -0.2027473 26 31
4.315804 0.57318842 -0.14247739 29 39
4.3529353 0.708211 -0.090860285 14 46
4.2236819 0.56026107 -0.50749636 28 10
4.3735075 0.71155041 -0.029916201 42 54
4.3209486 0.83341253 -0.22033001 17 29
4.3382983 0.83675665 -0.15915364 42 37
4.2814174 0.95489234 -0.28819552 49 24
4.3482952 0.56821877 -0.082750402 26 47
4.2687078 0.68612981 -0.32914412 29 21
4.3589373 0.56960285 -0.022068461 33 55
4.2877345 0.68841332 -0.27019006 33 25
4.2279668 0.42577377 -0.42723864 36 14
4.3688364 0.57011491 0.038897637 17 63
4.3157005 0.69289279 -0.21125202 25 30
4.2385888 0.42608675 -0.36806649 20 18
4.3331203 0.69490719 -0.15122828 37 38
4.2532377 0.42679656 -0.31052315 32 22
4.3664846 0.83191848 -0.099282265 40 45
4.2720413 0.42866677 -0.2521992 23 26
4.2094302 0.67361045 -0.53023165 52 9
4.2950883 0.43020198 -0.19363388 23 32
4.2437282 0.67908561 -0.44716126 49 13
4.302412 0.43017074 -0.13400437 38 40
4.2545195 0.68004686 -0.38806868 34 17
4.328732 0.43277931 -0.074554741 14 48
4.3104353 0.55717534 -0.20251267 29 31
4.3177791 0.55811995 -0.14247739 35 39
4.3504434 0.69222844 -0.090756439 17 46
4.2256122 0.54551429 -0.50749636 33 10
4.371027 0.6954959 -0.029882167 43 54
4.3808923 0.6970619 0.031485472 32 62
4.3238316 0.81832439 -0.22033001 23 29
4.3411922 0.82160795 -0.15915364 41 37
4.2749782 0.93780226 -0.28753451 50 24
4.3032007 0.94242275 -0.22820789 53 28
4.3452926 0.55240953 -0.082655281 35 47
4.2710767 0.67122513 -0.32914412 37 21
4.360899 0.55438387 -0.022068461 43 55
4.2901115 0.67344207 -0.27019006 46 25
4.2244754 0.41053599 -0.42673421 47 14
4.365839 0.55423462 0.038853131 20 63
4.3131599 0.67705137 -0.21100867 29 30
4.2400503 0.41128871 -0.36806649 28 18
4.3305821 0.67900532 -0.15105465 46 38
4.2547016 0.4119474 -0.31052315 42 22
4.3644485 0.81575376 -0.099169694 49 45
4.2735114 0.41375196 -0.2521992 30 26
4.2264624 0.66120774 -0.53209871 52 9
4.2915916 0.41473055 -0.19340794 31 32
4.2411594 0.66350132 -0.44663948 47 13
4.3038874 0.4151499 -0.13400437 36 40
4.2568674 0.66519159 -0.38806868 49 17
4.3252401 0.41719088 -0.074468352 20 48
4.3123541 0.5421257 -0.20251267 33 31
4.3197007 0.54304469 -0.14247739 44 39
4.3528333 0.67703831 -0.090756439 25 46
4.2274899 0.53076077 -0.50749636 43 10
4.3734279 0.6802339 -0.029882167 45 54
4.3783579 0.68099892 0.03144969 43 62
4.3266621 0.80322641 -0.22033001 30 29
4.3391218 0.805538 -0.15897217 67 37
4.283103 0.92392671 -0.28786501 48 24
4.3162265 0.92949963 -0.22872949 47 28
4.3471942 0.53723824 -0.082655281 31 47
4.2684665 0.65555727 -0.32876143 49 21
4.3578448 0.53854787 -0.022043152 47 55
4.2924361 0.65846276 -0.27019006 47 25
4.2209296 0.39532781 -0.42622977 48 14
4.3677473 0.53899169 0.038853131 23 63
4.3105597 0.66123611 -0.21076529 35 30
4.2414598 0.39648566 -0.36806649 32 18
4.3279867 0.66312969 -0.15088102 49 38
4.2561131 0.39709321 -0.31052315 47 22
4.3623524 0.7996133 -0.099057138 49 45
4.274929 0.39883208 -0.2521992 38 26
4.2238398 0.64570266 -0.53147638 51 9
4.2930131 0.39974755 -0.19340794 39 32
4.238534 0.64794332 -0.44611773 49 13
4.300334 0.39966583 -0.13384819 46 40
4.2542405 0.64957851 -0.38761637 47 17
4.321692 0.40163216 -0.074381955 20 48
4.3092613 0.52646685 -0.202278 45 31
4.3166094 0.5273599 -0.14231251 44 39
4.3551698 0.66184002 -0.090756439 28 46
4.219461 0.5148046 -0.50630361 49 10
4.370832 0.66421425 -0.029848132 45 54
4.3757648 0.66496205 0.031413913 43 62
4.3245258 0.78722495 -0.22007792 41 29
4.341907 0.79038674 -0.15897217 66 37
4.262454 0.90390998 -0.34690878 43 20
4.2863016 0.9089703 -0.28786501 51 24
4.3096752 0.91235805 -0.22820789 43 28
4.3391156 0.52087492 -0.08246506 36 47
4.2657981 0.63991582 -0.32837868 46 21
4.354733 0.52273995 -0.022017844 48 55
4.2897735 0.64273775 -0.26987696 49 25
4.2222843 0.3805916 -0.42622977 48 14
4.3646383 0.52315021 0.038808629 30 63
4.3079033 0.64544725 -0.21052189 47 30
4.2378569 0.38123587 -0.36763248 39 18
4.3253326 0.6472804 -0.15070739 49 38
4.2525067 0.38179263 -0.31015781 43 22
4.3601971 0.78349757 -0.098944567 43 45
4.2663522 0.38302344 -0.25160789 46 26
4.2211614 0.63022405 -0.53085405 49 9
4.2844315 0.38387692 -0.19295606 46 32
4.2407699 0.63314408 -0.44611773 39 13
4.3017025 0.38465241 -0.13384819 43 40
4.2515569 0.6339919 -0.38716406 44 17
4.3230677 0.38654417 -0.074381955 33 48
4.3061132 0.51083618 -0.20204332 50 31
4.3134613 0.51170325 -0.1421476 47 39
4.3475642 0.64516968 -0.090548769 44 46
4.2212324 0.50007284 -0.50630361 43 10
4.3681784 0.64822102 -0.0298141 43 54
4.3731132 0.64895153 0.031378131 41 62
4.3223319 0.77124828 -0.21982583 45 29
4.3822608 0.64952397 0.092808835 12 69
4.3397202 0.77434874 -0.15879069 67 37
4.270462 0.8900432 -0.34730887 31 20
4.2894487 0.89400274 -0.28786501 42 24
4.3177223 0.89832664 -0.2284687 43 28
4.3254757 0.89915323 -0.16756637 23 36
4.3409071 0.50572544 -0.08246506 41 47
4.2630725 0.62430096 -0.32799596 43 21
4.3515639 0.50696039 -0.021992534 50 55
4.282115 0.62631893 -0.26925078 39 25
4.223587 0.36585078 -0.42622977 46 14
4.3664374 0.50791156 0.038808629 37 63
4.3051877 0.62968498 -0.21027851 42 30
4.2341986 0.36601606 -0.36719844 42 18
4.3176765 0.63073725 -0.15036015 42 38
4.2438765 0.36609787 -0.30942717 43 22
4.3579822 0.76740652 -0.098832004 20 45
4.2626905 0.36770418 -0.25131223 41 26
4.2282448 0.6161992 -0.53147638 45 9
4.373826 0.76940757 -0.037672214 38 53
4.2608614 0.36679891 -0.19182634 42 32
4.2429538 0.61833715 -0.44611773 47 13
4.2781205 0.36751729 -0.13306728 42 40
4.2488165 0.61843199 -0.38671181 41 17
4.3029075 0.49523389 -0.20180866 37 31
4.3102565 0.49607506 -0.14198269 48 39
4.344842 0.62927514 -0.090444922 31 46
4.21802 0.48477122 -0.50570726 29 10
4.3654656 0.63225436 -0.029780064 45 54
4.3753519 0.63368255 0.031378131 28 62
4.3200784 0.75529635 -0.21957374 40 29
4.3845015 0.6342231 0.092808835 40 69
4.3374743 0.75833565 -0.15860921 43 37
4.2637777 0.87313014 -0.34650865 40 20
4.2876558 0.87802279 -0.28753451 39 24
4.3159394 0.88224882 -0.22820789 40 28
4.3285885 0.88404894 -0.16756637 47 36
4.3376784 0.49001163 -0.082369938 32 47
4.2602906 0.60871291 -0.3276132 37 21
4.3483386 0.49120927 -0.021967227 42 55
4.2842746 0.61136776 -0.26925078 35 25
4.2198801 0.35069785 -0.42572537 39 14
4.3024154 0.61394954 -0.21003516 36 30
4.2304859 0.35082641 -0.36676437 25 18
4.3198524 0.61566192 -0.15036015 42 38
4.2451282 0.35128173 -0.30942717 42 22
4.3458562 0.74964237 -0.098494314 13 45
4.2639475 0.35282236 -0.25131223 39 26
4.2205453 0.60004318 -0.53023165 35 9
4.3764853 0.75413537 -0.037672214 50 53
4.2670941 0.35233018 -0.19205229 34 32
4.2401628 0.60282469 -0.44559595 41 13
4.2793775 0.35258165 -0.13306728 41 40
4.2509494 0.6035971 -0.38671181 20 17
4.2015181 0.72249758 -0.56776309 17 8
4.2996464 0.47966033 -0.20157401 38 31
4.3069944 0.48047543 -0.14181778 43 39
4.342062 0.61340755 -0.090341084 14 46
4.2147527 0.46949822 -0.50511092 23 10
4.3626952 0.61631471 -0.02974603 43 54
4.3725867 0.61770844 0.031342354 28 62
4.3177662 0.73936963 -0.21932164 35 29
4.3767877 0.61752123 0.092597663 40 69
4.3351698 0.74234766 -0.15842773 40 37
4.2517347 0.85598147 -0.40579784 43 16
4.2716856 0.8592248 -0.34690878 17 20
4.2906938 0.8630507 -0.28753451 34 24
4.3238883 0.86816156 -0.2284687 17 28
4.3316479 0.86893398 -0.16756637 40 36
4.3343925 0.47432658 -0.082274824 22 47
4.2623892 0.59383804 -0.3276132 27 21
4.3450565 0.47548696 -0.021941921 39 55
4.2814403 0.59572321 -0.26893774 28 25
4.2111607 0.33518502 -0.42471656 27 14
4.3045325 0.59892756 -0.21003516 14 30
4.2267189 0.33566716 -0.36633033 23 18
4.3170247 0.59989309 -0.15018652 43 38
4.2413573 0.33607182 -0.30906186 40 22
4.3533754 0.73529983 -0.098606877 14 45
4.2601771 0.33754635 -0.25101656 28 26
4.2226148 0.58530712 -0.53023165 23 9
4.3741612 0.73802286 -0.037629455 46 53
4.283237 0.33860093 -0.19273011 32 32
4.2373161 0.58733922 -0.44507417 20 13
4.2756004 0.33725312 -0.1329111 40 40
4.2431645 0.58739287 -0.38580719 14 17
4.2089014 0.70864928 -0.5684287 47 8
4.2963281 0.46411544 -0.20133935 25 31
4.3086452 0.46543828 -0.14181778 37 39
4.3392239 0.59756696 -0.090237238 14 46
4.2163658 0.45478311 -0.50511092 23 10
4.36482 0.60108227 -0.02974603 39 54
4.364809 0.60108078 0.031270795 13 62
4.3153958 0.72346824 -0.21906954 14 29
4.3739648 0.60156041 0.092492089 40 69
4.3328075 0.72638506 -0.15824628 38 37
4.2546968 0.84113491 -0.40579784 25 16
4.2746592 0.84430867 -0.34690878 20 20
4.2936807 0.84806818 -0.28753451 23 24
4.3219938 0.85209662 -0.22820789 17 28
4.3346543 0.8538084 -0.16756637 43 36
4.3360219 0.45919383 -0.082274824 19 47
4.2644362 0.57895589 -0.3276132 17 21
4.3417177 0.45979351 -0.021916613 46 55
4.2834935 0.58077461 -0.26893774 22 25
4.2123046 0.32048327 -0.42471656 25 14
4.3016477 0.58322918 -0.20979176 17 30
4.2278643 0.32091114 -0.36633033 23 18
4.3141398 0.58415151 -0.15001288 39 38
4.2425046 0.32126468 -0.30906186 25 22
4.3509836 0.71928453 -0.098494314 17 45
4.2563519 0.322301 -0.25072089 22 26
4.2197156 0.56990176 -0.52960938 30 9
4.3717775 0.72193569 -0.037586693 40 53
4.2794113 0.32327563 -0.19250417 14 32
4.2393403 0.57254463 -0.44507417 29 13
4.2617998 0.32121271 -0.13244255 38 40
4.2451892 0.57257795 -0.38580719 23 17
4.2162395 0.6947583 -0.5690943 53 8
4.2929549 0.44859967 -0.20110469 17 31
4.305274 0.44987923 -0.14165288 25 39
4.3412833 0.58241659 -0.090237238 17 46
4.2179275 0.44006249 -0.50511092 25 10
4.3569798 0.58451658 -0.029677963 34 54
4.3668804 0.58584112 0.031270795 14 62
4.3178949 0.70840031 -0.21906954 17 29
4.3710828 0.58562678 0.092386499 37 69
4.3303847 0.71044785 -0.1580648 36 37
4.2527208 0.82532924 -0.40532821 36 16
4.2775798 0.82938218 -0.34690878 17 20
4.2917166 0.83212501 -0.287204 24 24
4.3200397 0.83605558 -0.22794707 14 28
4.3327036 0.83772343 -0.16737533 38 36
4.3326244 0.44354942 -0.082179703 17 47
4.2614889 0.56341517 -0.32723051 25 21
4.3383212 0.44412911 -0.021891303 41 55
4.2805471 0.56516755 -0.26862463 29 25
4.208436 0.30542201 -0.42421213 36 14
4.3036575 0.56821007 -0.20979176 23 30
4.2289591 0.30615118 -0.36633033 23 18
4.316153 0.56908876 -0.15001288 31 38
4.2435999 0.30645365 -0.30906186 28 22
4.3485327 0.70329481 -0.098381743 17 45
4.2574506 0.30744162 -0.25072089 20 26
4.2167602 0.55452371 -0.52898705 38 9
4.3742714 0.70667088 -0.037586693 35 53
4.2755322 0.30798125 -0.19227824 20 32
4.2363825 0.5570966 -0.44455236 36 13
4.379426 0.70671874 0.023806175 30 61
4.2471619 0.55775589 -0.38580719 29 17
4.2137456 0.67924857 -0.5684287 49 8
4.2895246 0.43311304 -0.20087002 20 31
4.3018456 0.43434936 -0.14148799 29 39
4.3432899 0.56725913 -0.090237238 17 46
4.2144976 0.42484167 -0.50451458 29 10
4.358994 0.56930429 -0.029677963 31 54
4.3639407 0.56994855 0.031235015 17 62
4.3154101 0.69253302 -0.21881744 20 29
4.3631859 0.56907582 0.092175327 20 69
4.3328385 0.69532764 -0.1580648 35 37
4.2738776 0.81474036 -0.46796471 95 12
4.2555757 0.81047952 -0.40532821 46 16
4.2755527 0.8135134 -0.34650865 25 20
4.2896943 0.81620586 -0.28687349 30 24
4.3180265 0.8200385 -0.22768626 20 28
4.3405094 0.8235262 -0.16756637 43 36
4.3670869 0.82778251 -0.10697706 42 44
4.3291712 0.42793435 -0.082084596 17 47
4.2584848 0.54790205 -0.32684779 31 21
4.2824936 0.55022222 -0.26862463 32 25
4.2094765 0.29072994 -0.42421213 37 14
4.3006611 0.55254948 -0.20954838 28 30
4.2300024 0.29138747 -0.36633033 25 18
4.3181133 0.55401915 -0.15001288 43 38
4.2396688 0.29130137 -0.30869654 34 22
4.3509612 0.68811131 -0.098381743 20 45
4.2584982 0.29257843 -0.25072089 28 26
4.2186699 0.53980106 -0.52898705 53 9
4.3717718 0.69061792 -0.037543934 51 53
4.266614 0.29238075 -0.19182634 28 32
4.2383008 0.54230541 -0.44455236 50 13
4.3868051 0.69220608 0.023833226 50 61
4.249083 0.54292721 -0.38580719 36 17
4.2160912 0.66453576 -0.5684287 45 8
4.2910104 0.41813716 -0.20087002 29 31
4.3033357 0.41933048 -0.14148799 40 39
4.3402843 0.55146652 -0.090133399 20 46
4.2159553 0.41012773 -0.50451458 33 10
4.3609548 0.55408514 -0.029677963 42 54
4.3609443 0.55408382 0.031199239 20 62
4.3178015 0.6774652 -0.21881744 28 29
4.3651462 0.55384195 0.092175327 36 69
4.3352394 0.68019903 -0.1580648 44 37
4.237607 0.79250163 -0.46365169 57 12
4.258379 0.79561979 -0.40532821 47 16
4.278367 0.79858398 -0.34650865 31 20
4.2925177 0.80122709 -0.28687349 36 24
4.3208623 0.80496079 -0.22768626 28 28
4.3384461 0.8074553 -0.16737533 46 36
4.365036 0.81161916 -0.10685576 47 44
4.3306389 0.41282013 -0.082084596 23 47
4.2603712 0.53303385 -0.32684779 42 21
4.2843881 0.53527021 -0.26862463 40 25
4.2104659 0.27603433 -0.42421213 48 14
4.3025632 0.537534 -0.20954838 32 30
4.2210522 0.2759791 -0.36546227 30 18
4.315063 0.53832603 -0.14983927 48 38
4.2356834 0.27618036 -0.30833119 43 22
4.3483968 0.67215645 -0.098269179 25 45
4.2545133 0.27739143 -0.25042525 33 26
4.2156053 0.52446121 -0.52836466 51 9
4.3692145 0.674591 -0.037501171 66 53
4.2875471 0.27876458 -0.19273011 29 32
4.2352333 0.52689564 -0.44403064 49 13
4.3743691 0.67460459 0.023752069 44 61
4.2460103 0.52747977 -0.38535488 44 17
4.2281809 0.65132248 -0.56975991 42 8
4.2924438 0.40315619 -0.20087002 36 31
4.2997971 0.40384221 -0.14132307 43 39
4.3372216 0.53570187 -0.09002956 23 46
4.2124181 0.39494851 -0.50391823 42 10
4.3578997 0.53824812 -0.029643927 43 54
4.3628516 0.53885794 0.031199239 25 62
4.3152041 0.66163301 -0.21856536 32 29
4.3326478 0.66430539 -0.15788332 62 37
4.2745719 0.78398621 -0.46742561 52 12
4.2611308 0.78075039 -0.40532821 50 16
4.276226 0.78274685 -0.3461085 37 20
4.290381 0.78533965 -0.28654301 49 24
4.3187342 0.7889753 -0.22742546 28 28
4.3412385 0.79230642 -0.16737533 46 36
4.3580084 0.79458308 -0.10661319 48 44
4.327075 0.39724687 -0.081989482 28 47
4.2622061 0.51815909 -0.32684779 48 21
4.2812767 0.51971209 -0.26831156 48 25
4.2064381 0.26103172 -0.42370769 49 14
4.294498 0.52131206 -0.20906164 48 30
4.2170177 0.26093999 -0.3650282 35 18
4.311954 0.52266085 -0.14966564 49 38
4.2316442 0.26109067 -0.30796587 48 22
4.3457747 0.65622789 -0.098156616 28 45
4.2504735 0.2622357 -0.25012958 42 26
4.2124848 0.50914943 -0.52774233 38 9
4.3665996 0.65859061 -0.037458412 66 53
4.2685513 0.26258728 -0.19182634 36 32
4.2370472 0.51210874 -0.44403064 49 13
4.3816419 0.66007537 0.023779122 42 61
4.2478256 0.5126552 -0.38535488 45 17
4.2304287 0.63655943 -0.56975991 42 8
4.2888508 0.38772377 -0.20063537 45 31
4.3011804 0.38883066 -0.14132307 46 39
4.3341017 0.51996517 -0.089925721 29 46
4.2088265 0.37979901 -0.50332183 45 10
4.3547873 0.52243912 -0.029609893 43 54
4.3696699 0.52421904 0.031235015 29 62
4.3125491 0.64582717 -0.21831326 41 29
4.329999 0.64843816 -0.15770184 64 37
4.2381449 0.76201832 -0.46311259 42 12
4.2589302 0.76499087 -0.40485853 49 16
4.2740264 0.76693439 -0.34570837 42 20
4.2930961 0.77035868 -0.28654301 45 24
4.3214617 0.77389538 -0.22742546 46 28
4.3390598 0.77626735 -0.16718425 48 36
4.3607554 0.77936602 -0.10661319 46 44
4.3360715 0.92001683 -0.17581317 54 35
4.3284349 0.38214016 -0.081989482 35 47
4.2590375 0.50269562 -0.32646504 45 21
4.2781081 0.50418222 -0.26799846 42 25
4.1973915 0.24577419 -0.42269889 49 14
4.2962914 0.50631827 -0.20906164 44 30
4.2179027 0.24621828 -0.3650282 41 18
4.3087893 0.50702399 -0.14949201 44 38
4.2325292 0.24631788 -0.30796587 46 22
4.3480382 0.64105433 -0.098156616 39 45
4.2463789 0.2471116 -0.2498339 44 26
4.2142367 0.49444202 -0.52774233 47 9
4.3688717 0.64334428 -0.037458412 65 53
4.2338696 0.49673796 -0.44350883 49 13
4.3789725 0.64404958 0.023752069 40 61
4.2446442 0.49724695 -0.38490263 43 17
4.2228193 0.62034923 -0.5684287 41 8
4.285202 0.37232134 -0.20040071 42 31
4.2975326 0.37338492 -0.14115816 49 39
4.330924 0.50425684 -0.089821875 36 46
4.2101264 0.36510515 -0.50332183 46 10
4.3516178 0.50665855 -0.029575856 43 54
4.3615403 0.50781012 0.03116346 41 62
4.3098354 0.63004786 -0.21806116 20 29
4.3272915 0.63259751 -0.15752035 65 37
4.2407789 0.7472198 -0.46311259 38 12
4.2615743 0.75011975 -0.40485853 42 16
4.2717695 0.75114691 -0.34530827 41 20
4.2859316 0.75363892 -0.285882 41 24
4.3143015 0.75707865 -0.22690383 42 28
4.3368216 0.76025307 -0.16699319 48 36
4.3585253 0.76327652 -0.1064919 39 44
4.3743501 0.76604968 -0.04459127 38 52
4.3294754 0.90283209 -0.17541359 40 35
4.2558126 0.48726046 -0.32608232 43 21
4.2748842 0.48868093 -0.26768541 38 25
4.1932564 0.23085207 -0.42219448 44 14
4.2881083 0.49018762 -0.20857488 37 30
4.2087884 0.23095651 -0.36416012 41 18
4.3055682 0.49141562 -0.14931838 42 38
4.2234049 0.23100623 -0.30723524 45 22
4.3403535 0.62445045 -0.097931482 13 45
4.2472157 0.23228748 -0.2498339 42 26
4.2110076 0.47916955 -0.52712005 43 9
4.3661418 0.6273796 -0.037415653 44 53
4.2306371 0.48139566 -0.44298705 46 13
4.3811941 0.62876022 0.023752069 28 61
4.2463536 0.48242736 -0.38490263 38 17
4.2200537 0.60490263 -0.56776309 39 8
4.2864757 0.3573609 -0.20040071 40 31
4.29881 0.35838145 -0.14115816 50 39
4.3276906 0.48857713 -0.089718036 13 46
4.2064281 0.34999835 -0.50272548 25 10
4.3483911 0.49090636 -0.029541822 43 54
4.3682551 0.4931415 0.031199239 36 62
4.307065 0.61429536 -0.21780907 39 29
4.3245273 0.61678368 -0.15733889 39 37
4.2433615 0.73241216 -0.46311259 20 12
4.2592611 0.73439306 -0.40438884 42 16
4.2743654 0.73623103 -0.34530827 17 20
4.2885361 0.73867363 -0.285882 38 24
4.3169174 0.74201429 -0.22690383 37 28
4.3345242 0.74426401 -0.16680211 46 36
4.3463836 0.74552083 -0.10612804 13 44
4.3671422 0.74908412 -0.044490043 47 52
4.3374944 0.88871855 -0.17561337 32 35
4.2574873 0.47240192 -0.32608232 35 21
4.2765641 0.47375584 -0.26768541 32 25
4.1940365 0.21621346 -0.42219448 39 14
4.289793 0.47521633 -0.20857488 14 30
4.209569 0.21626367 -0.36416012 23 18
4.30229 0.47583598 -0.14914477 40 38
4.2241859 0.21626239 -0.30723524 43 22
4.3425069 0.60929596 -0.097931482 17 45
4.2430167 0.21720973 -0.24953823 41 26
4.2126546 0.46446747 -0.52712005 28 9
4.3633537 0.61144185 -0.037372891 40 53
4.2322917 0.46662503 -0.44298705 41 13
4.3734584 0.61207837 0.023697965 17 61
4.243062 0.4670589 -0.38445032 17 17
4.2172313 0.58948278 -0.56709743 29 8
4.3076124 0.34397396 -0.20133935 20 31
4.295054 0.34297895 -0.14099327 45 39
4.3244009 0.47292608 -0.089614205 14 46
4.207624 0.33531302 -0.50272548 23 10
4.345108 0.47518295 -0.02950779 43 54
4.3042374 0.59857005 -0.21755698 14 29
4.326654 0.60168457 -0.15733889 39 37
4.268826 0.98278719 -0.30303183 48 23
4.2409911 0.7167666 -0.46257344 20 12
4.29703 0.98850888 -0.24373554 95 27
4.2617989 0.71952093 -0.40438884 29 16
4.2769094 0.7213062 -0.34530827 20 20
4.2910886 0.72369933 -0.285882 29 24
4.3194814 0.72694093 -0.22690383 20 28
4.3370962 0.7291292 -0.16680211 43 36
4.3489599 0.73034459 -0.10612804 13 44
4.3746614 0.73466402 -0.044540659 39 52
4.3307753 0.87159741 -0.1752138 41 35
4.2491975 0.45647642 -0.32531688 22 21
4.2682681 0.45776436 -0.26705924 34 25
4.1897969 0.20133789 -0.42169005 28 14
4.2864599 0.45970854 -0.2083315 14 30
4.2102985 0.20156822 -0.36416012 25 18
4.2989564 0.46028513 -0.14897114 39 38
4.2199335 0.20128275 -0.30686992 39 22
4.3396544 0.59345746 -0.097818919 20 45
4.2142501 0.44975972 -0.52712005 23 9
4.3654613 0.5962072 -0.037372891 38 53
4.2338943 0.45184875 -0.44298705 28 13
4.3706141 0.59613323 0.023670912 13 61
4.2397146 0.45171931 -0.38399801 17 17
4.2143531 0.57409012 -0.56643188 36 8
4.2838855 0.32705006 -0.20016605 17 31
4.2962246 0.32798436 -0.14099327 42 39
4.326025 0.45782822 -0.089614205 14 46
4.2038193 0.32024971 -0.5021292 25 10
4.3467402 0.46001282 -0.02950779 41 54
4.3063006 0.58354181 -0.21755698 14 29
4.3188243 0.58523732 -0.15697594 36 37
4.2673664 0.96677506 -0.30268389 96 23
4.2434673 0.70195842 -0.46257344 23 12
4.3101902 0.97571361 -0.24429199 97 27
4.2544622 0.70301586 -0.40344951 28 16
4.2744827 0.70556027 -0.34490815 17 20
4.2886653 0.70790309 -0.28555149 21 24
4.3170657 0.71104658 -0.22664301 17 28
4.3346853 0.71317381 -0.16661106 36 36
4.3514824 0.71515942 -0.10612804 17 44
4.3673315 0.71776623 -0.044439428 40 52
4.3337917 0.85647488 -0.1752138 34 35
4.3602881 0.86172134 -0.11467152 60 43
4.2507648 0.44164115 -0.32531688 20 21
4.2698398 0.44286254 -0.26705924 23 25
4.190474 0.18671155 -0.42169005 25 14
4.2830715 0.4442299 -0.20808813 20 30
4.2060003 0.18665391 -0.36372611 20 18
4.3005366 0.44527617 -0.14897114 37 38
4.2106466 0.18611965 -0.30613929 29 22
4.3416996 0.57830554 -0.097818919 20 45
4.2108593 0.43453917 -0.52649766 32 9
4.3576031 0.5796479 -0.037287369 25 53
4.2255526 0.43604982 -0.44194353 29 13
4.367712 0.58021563 0.023643859 14 61
4.2363119 0.43640879 -0.38354573 28 17
4.2163315 0.55937576 -0.56643188 48 8
4.2750382 0.31137514 -0.19969673 20 31
4.3226233 0.44221789 -0.089510359 17 46
4.1950088 0.30486035 -0.50093645 25 10
4.3383713 0.44382304 -0.029439719 35 54
4.30336 0.56785375 -0.21730489 20 29
4.3208408 0.57015824 -0.15697594 29 37
4.2755823 0.95296139 -0.30303183 96 23
4.240984 0.68634689 -0.46203431 31 12
4.2940812 0.95630962 -0.24317905 46 27
4.251976 0.68736571 -0.40297982 36 16
4.2719998 0.68984014 -0.34450799 20 20
4.2911105 0.69292855 -0.28555149 27 24
4.3145919 0.69517791 -0.2263822 17 28
4.3322153 0.69724405 -0.16641998 31 36
4.3490171 0.69917154 -0.10600674 20 44
4.3698106 0.70251703 -0.044439428 34 52
4.3827024 0.71793759 0.016145131 45 60
4.3367548 0.84134185 -0.1752138 69 35
4.368176 0.84744954 -0.11480154 81 43
4.2522807 0.42680055 -0.32531688 29 21
4.2713594 0.42795533 -0.26705924 30 25
4.1861296 0.17188327 -0.42118561 34 14
4.2845964 0.42927653 -0.20808813 20 30
4.2016487 0.17177206 -0.36329204 20 18
4.3020649 0.43026176 -0.14897114 37 38
4.2112703 0.17142062 -0.30613929 25 22
4.3387337 0.56250447 -0.097706348 24 45
4.2123504 0.41983786 -0.52649766 38 9
4.3546414 0.56379223 -0.03724461 35 53
4.2270489 0.42129722 -0.44194353 40 13
4.3697104 0.5649659 0.023643859 20 61
4.2378092 0.42161864 -0.38354573 30 17
4.2133436 0.54402065 -0.56576627 51 8
4.2711167 0.29610828 -0.19946206 25 31
4.3241405 0.42712638 -0.089510359 14 46
4.1960468 0.29021519 -0.50093645 29 10
4.3398943 0.42867658 -0.029439719 36 54
4.305316 0.55282873 -0.21730489 23 29
4.3228045 0.55507219 -0.15697594 42 37
4.2691398 0.93588889 -0.30233598 97 23
4.2433538 0.67153889 -0.46203431 37 12
4.3071456 0.94345701 -0.24373554 39 27
4.2592664 0.67329723 -0.40344951 47 16
4.2694588 0.674146 -0.34410787 28 20
4.2885756 0.67716694 -0.28522104 31 24
4.3169923 0.68011302 -0.2263822 23 28
4.3346229 0.68211746 -0.16641998 40 36
4.3464937 0.6832096 -0.10588545 23 44
4.2850509 0.93468463 -0.36449519 48 19
4.3672976 0.68648231 -0.044388812 40 52
4.3851819 0.70263481 0.016145131 34 60
4.3347578 0.82526255 -0.17501402 39 35
4.3563786 0.82938689 -0.1144115 35 43
4.2537441 0.41195473 -0.32531688 33 21
4.2728276 0.41304287 -0.26705924 34 25
4.1817336 0.15708764 -0.42068124 37 14
4.2860684 0.41431785 -0.20808813 29 30
4.1972451 0.15692288 -0.362858 23 18
4.2985668 0.41476408 -0.14879751 47 38
4.2018766 0.15635751 -0.30540863 29 22
4.3406711 0.54735613 -0.097706348 35 45
4.2088513 0.4046585 -0.52587533 55 9
4.3565831 0.54858822 -0.03724461 49 53
4.2284942 0.4065395 -0.44194353 49 13
4.3666949 0.54908609 0.023616806 23 61
4.239255 0.40682334 -0.38354573 38 17
4.2004662 0.52745962 -0.56376946 49 8
4.2771082 0.28152239 -0.19969673 28 31
4.3206291 0.41155759 -0.089406513 20 46
4.1970344 0.27556649 -0.50093645 34 10
4.3022642 0.53717893 -0.21705279 29 29
4.3197579 0.53936094 -0.15679446 59 37
4.2772555 0.92203516 -0.30268389 46 23
4.2407598 0.65596229 -0.46149516 50 12
4.3104129 0.92841661 -0.24373554 46 27
4.256671 0.65766478 -0.40297982 48 16
4.2717862 0.65923858 -0.34410787 32 20
4.2859826 0.66143125 -0.28489053 49 24
4.3144059 0.6642794 -0.22612141 29 28
4.3369775 0.66698271 -0.16641998 47 36
4.3488512 0.66803336 -0.10588545 29 44
4.2639318 0.91448212 -0.36240759 90 19
4.3647251 0.67047369 -0.0443382 46 52
4.3777285 0.68577462 0.016108479 44 60
4.3376122 0.81012636 -0.17501402 48 35
4.3592467 0.81417519 -0.1144115 47 43
4.2501926 0.39664254 -0.32493415 49 21
4.2692747 0.39766449 -0.26674613 40 25
4.1822567 0.14248972 -0.42068124 48 14
4.282516 0.39889282 -0.20784475 33 30
4.1977673 0.14227079 -0.362858 29 18
4.295012 0.39929602 -0.14862388 50 38
4.337594 0.53159362 -0.097593792 57 45
4.2052979 0.38950875 -0.525253 51 9
4.3584714 0.53337753 -0.03724461 64 53
4.2249351 0.39132008 -0.44142175 52 13
4.3685851 0.53384012 0.023616806 30 61
4.2356915 0.39156663 -0.38309345 45 17
4.1973624 0.51219445 -0.56310385 46 8
4.2581244 0.26536071 -0.19875808 32 31
4.3220391 0.39647326 -0.089406513 23 46
4.1930151 0.26060963 -0.50034004 42 10
4.3041129 0.52215797 -0.21705279 38 29
4.3166542 0.52367783 -0.15661299 63 37
4.2804484 0.90709907 -0.30268389 47 23
4.2430243 0.6411553 -0.46149516 47 12
4.3038602 0.91129047 -0.24317905 46 27
4.2589412 0.64280224 -0.40297982 42 16
4.3264723 0.91530365 -0.1830692 96 34
4.2691336 0.64357972 -0.34370777 46 20
4.2882652 0.64646637 -0.28489053 45 24
4.3166981 0.64921528 -0.22612141 28 28
4.3343382 0.65109688 -0.16622891 48 36
4.3462138 0.6521067 -0.10576417 31 44
4.2817221 0.90268517 -0.36366019 37 19
4.3670392 0.65523392 -0.0443382 48 52
4.3800955 0.67048931 0.016108479 44 60
4.3942747 0.67266148 0.077734679 13 68
4.3354998 0.79407841 -0.17481422 51 35
4.3571463 0.7980513 -0.11428149 47 43
4.2515512 0.38180417 -0.32493415 48 21
4.2706366 0.38275948 -0.26674613 45 25
4.1777558 0.12774247 -0.42017683 49 14
4.2789078 0.38349769 -0.20760137 43 30
4.1882806 0.12732318 -0.36198995 36 18
4.29638 0.38430122 -0.14862388 53 38
4.3344598 0.51585925 -0.097481228 38 45
4.2066321 0.37482715 -0.525253 49 9
4.3553414 0.51757097 -0.037201848 66 53
4.2262754 0.3765699 -0.44142175 47 13
4.3704219 0.51858765 0.023616806 33 61
4.2370324 0.3767789 -0.38309345 46 17
4.1942034 0.49695727 -0.56243825 42 8
4.3184166 0.38094667 -0.089302674 31 46
4.1889439 0.24568419 -0.49974376 44 10
4.2959909 0.50596368 -0.21654861 48 29
4.3134933 0.50802279 -0.15643151 41 37
4.3821025 0.77893829 -0.05316817 58 51
4.2787061 0.89113206 -0.30233598 41 23
4.2403188 0.62561429 -0.46095607 43 12
4.3070154 0.89626163 -0.24317905 47 27
4.2562346 0.62720555 -0.40251014 44 16
4.3296409 0.9001959 -0.1830692 37 34
4.2713537 0.62867379 -0.34370777 40 20
4.2904959 0.63149363 -0.28489053 49 24
4.3090572 0.6326912 -0.22559978 39 28
4.3316412 0.63523769 -0.16603784 48 36
4.348464 0.63693166 -0.10576417 42 44
4.2750907 0.88570613 -0.36282513 35 19
4.3643532 0.63926095 -0.044287585 49 52
4.3725195 0.65371603 0.016071828 43 60
4.3768187 0.65435934 0.07738214 43 68
4.3382449 0.7789399 -0.17481422 53 35
4.3549857 0.78195208 -0.11415147 44 43
4.2478905 0.36653441 -0.3245514 45 21
4.2620029 0.36699739 -0.26611999 44 25
4.1732035 0.11302837 -0.4196724 51 14
4.2702689 0.36770606 -0.20711462 42 30
4.1886997 0.11270258 -0.36198995 49 18
4.292717 0.36887574 -0.14845027 54 38
4.3312674 0.50015312 -0.097368658 38 45
4.202971 0.35971978 -0.52463061 47 9
4.3521547 0.50179279 -0.037159085 46 53
4.2226095 0.36139303 -0.44089997 51 13
4.3672385 0.50275773 0.023589756 37 61
4.2333603 0.36156476 -0.38264114 43 17
4.1959128 0.48231375 -0.56243825 41 8
4.179862 0.23052017 -0.49855104 50 10
4.2977309 0.49096477 -0.21654861 40 29
4.3102756 0.4923963 -0.15625003 45 37
4.3798699 0.76277757 -0.053107958 33 51
4.2817907 0.87619114 -0.30233598 36 23
4.2424769 0.61080903 -0.46095607 37 12
4.3052268 0.88021886 -0.2429008 33 27
4.2534704 0.61163551 -0.40204045 45 16
4.3278623 0.88407427 -0.18286069 42 34
4.268589 0.613051 -0.34330764 39 20
4.2877355 0.61580324 -0.28456002 40 24
4.3112392 0.61764592 -0.22559978 42 28
4.328886 0.61940521 -0.16584677 48 36
4.262877 0.86843294 -0.42226949 96 15
4.3407645 0.62033325 -0.10552159 25 44
4.2586288 0.86679077 -0.36115503 34 19
4.361608 0.62331462 -0.044236969 44 52
4.3747745 0.63844907 0.016071828 42 60
4.3889699 0.64052248 0.077558413 44 68
4.3360176 0.76292431 -0.17461444 43 35
4.352766 0.76587754 -0.11402146 25 43
4.2491436 0.35170427 -0.3245514 35 21
4.263258 0.35211799 -0.26611999 38 25
4.1685996 0.098347634 -0.41916797 51 14
4.2814808 0.35361618 -0.20760137 30 30
4.1840878 0.097968452 -0.3615559 42 18
4.2939782 0.35388914 -0.14845027 45 38
4.3280196 0.48447567 -0.097256087 34 45
4.2042012 0.34504649 -0.52463061 43 9
4.3489108 0.48604313 -0.037116323 39 53
4.2238455 0.3466512 -0.44089997 37 13
4.3689671 0.48751014 0.023589756 40 61
4.2296333 0.34638083 -0.38218886 37 17
4.1926455 0.46711627 -0.56177258 40 8
4.175683 0.21567543 -0.49795467 49 10
4.2894917 0.47486222 -0.21604441 36 29
4.3070016 0.47679839 -0.15606855 40 37
4.3775778 0.74664193 -0.053047743 41 51
4.2848234 0.86123961 -0.30233598 32 23
4.2445836 0.59599632 -0.46095607 17 12
4.3131666 0.86617142 -0.24317905 33 27
4.2555795 0.59678435 -0.40204045 39 16
4.3309221 0.86896181 -0.18286069 35 34
4.2657676 0.5974552 -0.34290752 17 20
4.2799783 0.59944731 -0.28389904 37 24
4.3084235 0.60190165 -0.22533897 32 28
4.3260741 0.60359991 -0.16565572 40 36
4.256124 0.85158879 -0.42129537 95 15
4.3379526 0.60448688 -0.10540029 14 44
4.2665133 0.85289973 -0.36157256 33 19
4.3588057 0.60739529 -0.044186354 41 52
4.3720269 0.62246895 0.016053503 23 60
4.3763309 0.62308234 0.077293999 41 68
4.3337312 0.7469337 -0.17441465 42 35
4.3455629 0.74897742 -0.11376143 23 43
4.2453761 0.33647788 -0.32416871 31 21
4.2594857 0.33684272 -0.26580688 31 25
4.1689172 0.083795905 -0.41916797 53 14
4.2727323 0.33788523 -0.20711462 17 30
4.2902055 0.33850703 -0.14827664 40 38
4.3247151 0.46882704 -0.097143531 14 45
4.2004347 0.32998234 -0.52400833 23 9
4.3456101 0.47032225 -0.037073568 38 53
4.2200723 0.33151749 -0.44037816 41 13
4.225852 0.3312273 -0.38173655 20 17
4.1893234 0.45194745 -0.56110698 33 8
4.1764107 0.20109826 -0.49795467 25 10
4.2911229 0.45988619 -0.21604441 17 29
4.308639 0.46176124 -0.15606855 39 37
4.380157 0.73135674 -0.053047743 43 51
4.2829103 0.84530866 -0.30198807 36 23
4.2367878 0.57982701 -0.45987779 22 12
4.3063703 0.84917283 -0.24262258 31 27
4.2527051 0.58125132 -0.40157083 20 16
4.3290286 0.85287029 -0.18265219 32 34
4.267827 0.58256131 -0.34290752 31 20
4.3458214 0.85618925 -0.12194944 96 42
4.2820444 0.58450377 -0.28389904 26 24
4.3055515 0.58618462 -0.22507818 17 28
4.323204 0.58782166 -0.16546464 43 36
4.2639532 0.83768928 -0.42178243 97 15
4.3400364 0.58934098 -0.10540029 20 44
4.2694654 0.83800173 -0.36157256 23 19
4.3559451 0.59150326 -0.044135742 35 52
4.3642678 0.60582781 0.01601685 14 60
4.373528 0.60711443 0.077205874 34 68
4.3363118 0.73180163 -0.17441465 37 35
4.3481507 0.73380411 -0.11376143 30 43
4.2465248 0.3216567 -0.32416871 20 21
4.2606359 0.32197231 -0.26580688 31 25
4.1642108 0.069165021 -0.41866359 49 14
4.2689052 0.32259408 -0.20687124 20 30
4.2913609 0.32352933 -0.14827664 37 38
4.3263254 0.45372811 -0.097143531 17 45
4.1916661 0.31457931 -0.52276361 25 9
4.3422527 0.45463037 -0.037030805 34 53
4.2112861 0.31604418 -0.43933466 29 13
4.2269826 0.31647432 -0.38173655 23 17
4.1908755 0.43732125 -0.56110698 40 8
4.1721277 0.18630038 -0.49735835 23 10
4.287735 0.44439039 -0.21579231 14 29
4.3002849 0.4456895 -0.15570562 25 37
4.3728156 0.71444684 -0.052927319 30 51
4.2858348 0.83035332 -0.30198807 19 23
4.2387862 0.56503433 -0.45987779 23 12
4.3880501 0.71615523 0.0084665865 34 59
4.3093076 0.83413565 -0.24262258 20 27
4.2547078 0.56640303 -0.40157083 28 16
4.3319793 0.83775395 -0.18265219 34 34
4.2648935 0.56700271 -0.34250736 23 20
4.3585963 0.84291816 -0.1222269 101 42
4.2840586 0.56955308 -0.28389904 24 24
4.3075719 0.57115191 -0.22507818 20 28
4.3202758 0.57207066 -0.16527356 36 36
4.2570796 0.82090962 -0.42080832 98 15
4.3371115 0.57353187 -0.10527901 20 44
4.2723641 0.82309335 -0.36157256 33 19
4.3530269 0.57563847 -0.044085126 30 52
4.3663559 0.59058994 0.01601685 14 60
4.370666 0.59117353 0.077117741 37 68
4.3339114 0.71584475 -0.17421487 34 35
4.3457541 0.71780533 -0.11363142 22 43
4.247622 0.3068316 -0.32416871 23 21
4.2617335 0.30709797 -0.26580688 25 25
4.1594529 0.054568022 -0.41815916 49 14
4.2650237 0.30733377 -0.20662786 23 30
4.2874799 0.3081913 -0.14810301 42 38
4.3229089 0.43812019 -0.097030967 17 45
4.1927385 0.29994574 -0.52276361 31 9
4.3388386 0.43896765 -0.036988042 36 53
4.2074037 0.30098921 -0.43881285 30 13
4.2230945 0.30136487 -0.38128424 28 17
4.1874466 0.4221932 -0.56044143 35 8
4.1727529 0.17173581 -0.49735835 28 10
4.2842922 0.42892393 -0.21554025 17 29
4.3018146 0.43067604 -0.15570562 34 37
4.3752823 0.69917846 -0.052927319 31 51
4.2838082 0.81445336 -0.30164018 27 23
4.2358031 0.54959458 -0.45933864 33 12
4.390523 0.70083374 0.0084665865 36 59
4.3121934 0.81908828 -0.24262258 26 27
4.2517233 0.55090767 -0.40110114 36 16
4.334877 0.82262743 -0.18265219 34 34
4.2668467 0.55211198 -0.34250736 25 20
4.3467822 0.82489419 -0.1218107 43 42
4.2810726 0.55395454 -0.28356853 29 24
4.3045864 0.55547255 -0.22481737 20 28
4.3222466 0.55698657 -0.16527356 36 36
4.2550306 0.80511647 -0.42032129 52 15
4.3390875 0.55838907 -0.10527901 23 44
4.2703161 0.80724651 -0.36115503 32 19
4.3500509 0.55980128 -0.044034511 33 52
4.368391 0.57534492 0.01601685 23 60
4.3677468 0.57526004 0.077029601 23 68
4.3314519 0.69991344 -0.17401507 29 35
4.3432994 0.70183229 -0.1135014 19 43
4.2436934 0.29166278 -0.32378599 30 21
4.2578011 0.29188043 -0.26549381 33 25
4.1596179 0.040048487 -0.41815916 43 14
4.2660704 0.29244417 -0.20662786 25 30
4.3244119 0.42302775 -0.097030967 20 45
4.1937604 0.28530854 -0.52276361 37 9
4.3353682 0.42333427 -0.03694528 39 53
4.2084284 0.28630081 -0.43881285 42 13
4.2241206 0.28662172 -0.38128424 32 17
4.1888943 0.40757373 -0.56044143 38 8
4.173327 0.15716913 -0.49735835 29 10
4.2857628 0.41396636 -0.21554025 23 29
4.2983179 0.41517749 -0.15552413 59 37
4.3727574 0.68312812 -0.052867107 36 51
4.2915273 0.8004126 -0.30198807 34 23
4.2376957 0.53480554 -0.45933864 40 12
4.3830628 0.68395835 0.0084473882 36 59
4.3101187 0.80311334 -0.24234435 38 27
4.2536197 0.53606302 -0.40110114 46 16
4.3328114 0.80657357 -0.18244368 39 34
4.263804 0.53659171 -0.34210727 30 20
4.3496356 0.80971605 -0.1218107 47 42
4.2780304 0.5383839 -0.28323802 34 24
4.3064995 0.5404433 -0.22481737 23 28
4.3192067 0.54127395 -0.1650825 42 36
4.2578149 0.79025877 -0.42032129 44 15
4.3360505 0.54261816 -0.10515773 28 44
4.273108 0.79233533 -0.36115503 50 19
4.3569398 0.5452348 -0.044085126 40 52
4.3703728 0.56009293 0.01601685 29 60
4.3598118 0.55873811 0.076853335 29 68
4.3338685 0.68478954 -0.17401507 38 35
4.340786 0.68588519 -0.1133714 27 43
4.3295522 0.94649357 -0.1911587 96 33
4.2347355 0.27620256 -0.32302052 36 21
4.2538142 0.27669415 -0.26518074 37 25
4.2620816 0.27722877 -0.20638447 28 30
4.3208852 0.40746149 -0.096918397 25 45
4.1897793 0.27035025 -0.52214128 54 9
4.2044392 0.27129057 -0.43829107 50 13
4.2201262 0.27155718 -0.38083196 40 17
4.185358 0.39248726 -0.55977577 49 8
4.1688881 0.14243419 -0.49676198 35 10
4.2871814 0.39900374 -0.21554025 28 29
4.2997408 0.40017104 -0.15552413 41 37
4.370173 0.66710395 -0.052806892 45 51
4.2844839 0.78362674 -0.30129224 42 23
4.2346034 0.51940417 -0.45879954 48 12
4.3854237 0.66865444 0.0084473882 44 59
4.3079853 0.78716296 -0.2420661 43 27
4.250524 0.52060604 -0.40063146 46 16
4.4095931 0.6723485 0.070277087 12 67
4.3356009 0.7914443 -0.18244368 44 34
4.260704 0.52109939 -0.34170714 36 20
4.3475194 0.7936275 -0.12167196 48 42
4.2798839 0.52344751 -0.28323802 50 24
4.3034029 0.52480245 -0.22455655 29 28
4.3161106 0.52558923 -0.16489144 49 36
4.2605476 0.77539146 -0.42032129 46 15
4.3379183 0.52747923 -0.10515773 30 44
4.2758474 0.77741462 -0.36115503 48 19
4.3538527 0.52941883 -0.044034511 47 52
4.3623781 0.54359633 0.015980199 34 60
4.3567748 0.54289734 0.076765202 37 68
4.331295 0.66889298 -0.17381528 47 35
4.343154 0.6707288 -0.1133714 32 43
4.3718181 0.80675536 -0.060804214 77 50
4.3279467 0.93032098 -0.19094147 96 33
4.2306976 0.2611137 -0.32263777 44 21
4.2447929 0.26123461 -0.26455456 51 25
4.2530541 0.26173991 -0.20589773 28 30
4.3222818 0.3923763 -0.096918397 30 45
4.1807933 0.25512302 -0.52089661 34 9
4.2053609 0.25661269 -0.43829107 47 13
4.2160778 0.256524 -0.38037968 44 17
4.1817665 0.37743038 -0.55911016 45 8
4.1643977 0.1277322 -0.4961656 45 10
4.2835741 0.38359144 -0.21528813 41 29
4.3011117 0.3851597 -0.15552413 40 37
4.3724751 0.65184516 -0.052806892 48 51
4.2822838 0.76778299 -0.30094433 46 23
4.2363911 0.50461954 -0.45879954 47 12
4.3827858 0.65260422 0.008437789 43 59
4.3107066 0.77212054 -0.2420661 43 27
4.2473726 0.50517726 -0.40016177 49 16
4.3921347 0.65399975 0.069959454 58 67
4.3334193 0.77542245 -0.18223517 45 34
4.2575474 0.50563508 -0.34130701 43 20
4.3502626 0.77844697 -0.12167196 45 42
4.2767301 0.50791574 -0.28290752 46 24
4.3002505 0.50918984 -0.22429574 47 28
4.3179188 0.51051992 -0.16489144 49 36
4.2583294 0.75963759 -0.41983423 46 15
4.3347692 0.51174718 -0.10503643 37 44
4.2736306 0.76160723 -0.3607375 47 19
4.3507094 0.51363105 -0.043983895 47 52
4.3642492 0.52836549 0.015980199 37 60
4.3336039 0.65376991 -0.17381528 53 35
4.345469 0.65556431 -0.1133714 36 43
4.369688 0.79059684 -0.060735274 37 50
4.3311682 0.91520792 -0.19094147 39 33
4.2315836 0.24634422 -0.32263777 50 21
4.2406964 0.24612865 -0.26424149 53 25
4.318645 0.37685242 -0.096805833 42 45
4.1717525 0.23996179 -0.51965195 50 9
4.2012658 0.24164802 -0.43776929 48 13
4.2119765 0.24152242 -0.37992737 49 17
4.1830587 0.362831 -0.55911016 45 8
4.1648183 0.11319496 -0.4961656 53 10
4.2799115 0.36820921 -0.21503603 45 29
4.2974515 0.36971599 -0.15534265 65 37
4.3697772 0.63585675 -0.052746683 51 51
4.2849374 0.75283033 -0.30094433 39 23
4.2331882 0.48925734 -0.45826042 45 12
4.3751416 0.63585955 0.0084185898 42 59
4.3035426 0.75533652 -0.24150962 38 27
4.2491102 0.49034804 -0.40016177 44 16
4.3993382 0.63938516 0.070038863 65 67
4.3311796 0.75942546 -0.18202665 42 34
4.2592864 0.49077037 -0.34130701 43 20
4.3480315 0.76239085 -0.12153323 37 42
4.2735214 0.49241239 -0.28257704 42 24
4.2970414 0.49360564 -0.22403494 43 28
4.3147111 0.49487457 -0.16470037 49 36
4.2560539 0.74390882 -0.4193472 42 15
4.331563 0.49604356 -0.10491514 41 44
4.2713556 0.74582481 -0.36032003 43 19
4.3524756 0.49844107 -0.043983895 49 52
4.3611012 0.51254392 0.015961872 43 60
4.325974 0.63717914 -0.17341571 51 35
4.3427858 0.63966167 -0.11324138 38 43
4.3724213 0.77533901 -0.060735274 35 50
4.3245559 0.89804405 -0.19050701 36 33
4.2224617 0.23103081 -0.32187235 49 21
4.236547 0.23105448 -0.26392838 56 25
4.3199339 0.36177522 -0.096805833 42 45
4.172565 0.22539818 -0.51965195 48 9
4.1971188 0.22671507 -0.43724754 48 13
4.2078214 0.22655258 -0.37947506 46 17
4.1941767 0.34904793 -0.56044143 43 8
4.1602249 0.098541982 -0.49556926 50 10
4.2761941 0.35285726 -0.21478394 42 29
4.3086753 0.35553342 -0.15570562 64 37
4.3670197 0.61989498 -0.052686468 41 51
4.2826242 0.73701954 -0.30059642 36 23
4.2299304 0.47392362 -0.45772126 37 12
4.3773346 0.62058359 0.0084185898 34 59
4.3061528 0.74030983 -0.24150962 33 27
4.2458491 0.47495893 -0.39969212 43 16
4.3866944 0.62191409 0.069800638 30 67
4.3288813 0.74345368 -0.18181817 39 34
4.2560205 0.47534591 -0.34090686 37 20
4.3358893 0.74466169 -0.12111701 42 42
4.2752142 0.47749203 -0.28257704 40 24
4.2937756 0.47805002 -0.22377412 39 28
4.3114462 0.47925776 -0.1645093 48 36
4.2537203 0.72820514 -0.41886014 30 15
4.3282995 0.48036858 -0.10479385 14 44
4.269022 0.73006749 -0.3599025 32 19
4.3492193 0.48269293 -0.04393328 43 52
4.3628635 0.49731776 0.015961872 42 60
4.3232274 0.62136221 -0.17321593 42 35
4.3350978 0.62307274 -0.11298135 20 43
4.3701758 0.75921303 -0.060666341 43 50
4.3804393 0.76100236 0.00076969014 13 58
4.3325577 0.88394588 -0.19072424 36 33
4.2282219 0.21654336 -0.32225507 40 21
4.2273602 0.21575983 -0.26330224 52 25
4.1683712 0.21058345 -0.51902962 43 9
4.1929178 0.21181406 -0.43672577 38 13
4.2085862 0.21186316 -0.37947506 38 17
4.1953697 0.33440536 -0.56044143 43 8
4.2873564 0.33871374 -0.21528813 17 29
4.3098907 0.34049118 -0.15570562 41 37
4.3642049 0.60396022 -0.052626252 40 51
4.285171 0.72206587 -0.30059642 27 23
4.2315588 0.45915556 -0.45772126 17 12
4.3745217 0.60461372 0.0084089916 17 59
4.3087111 0.72527397 -0.24150962 35 27
4.2474813 0.46013522 -0.39969212 37 16
4.3789339 0.60522521 0.069641814 30 67
4.3265238 0.72750711 -0.18160966 43 34
4.2576537 0.46048671 -0.34090686 17 20
4.3384624 0.72952205 -0.12111701 33 42
4.276855 0.46256584 -0.28257704 35 24
4.2954183 0.46305901 -0.22377412 20 28
4.308125 0.46366981 -0.16431823 35 36
4.2562366 0.71335256 -0.41886014 20 15
4.3249807 0.46472242 -0.10467257 13 44
4.2715445 0.71516138 -0.3599025 38 19
4.3409367 0.46643889 -0.043832056 38 52
4.3546338 0.48098642 0.015925221 37 60
4.3253698 0.60626757 -0.17321593 41 35
4.3322959 0.60724097 -0.11285134 30 43
4.3678713 0.74311209 -0.060597397 34 50
4.3781404 0.74486554 0.0007688175 98 58
4.3258233 0.86684579 -0.1902898 29 33
4.3476076 0.87123048 -0.12976448 98 41
4.2189918 0.20131136 -0.3214896 30 21
4.2231026 0.2007672 -0.26298916 49 25
4.1690812 0.19603184 -0.51902962 25 9
4.1936321 0.19717675 -0.43672577 41 13
4.2043266 0.19694008 -0.37902281 36 17
4.1915703 0.31938291 -0.55977577 37 8
4.2735744 0.32262015 -0.21453187 17 29
4.3060699 0.32506922 -0.15552413 39 37
4.3613315 0.58805281 -0.05256604 32 51
4.2827444 0.70628887 -0.30024853 17 23
4.2331357 0.44438183 -0.45772126 20 12
4.3716502 0.58867109 0.0083993915 13 59
4.3013654 0.70860034 -0.24095315 20 27
4.2391601 0.444267 -0.39875275 23 16
4.3760657 0.58926731 0.069562413 28 67
4.3241081 0.71158606 -0.18140115 33 34
4.2493219 0.44458348 -0.34010664 29 20
4.3360515 0.71355897 -0.12097829 22 42
4.2685194 0.44659448 -0.28191602 25 24
4.2920423 0.44754392 -0.22351331 17 28
4.3047485 0.44811097 -0.16412717 32 36
4.2488809 0.69687426 -0.41788605 21 15
4.3265762 0.4496226 -0.10467257 17 44
4.2641816 0.69862926 -0.35906744 21 19
4.3425384 0.45128334 -0.043832056 35 52
4.3225102 0.59048748 -0.17301613 36 35
4.3294377 0.59143645 -0.11272133 25 43
4.3655071 0.72703654 -0.060528457 35 50
4.3807135 0.72957844 0.0007688175 100 58
4.3288226 0.85174066 -0.1902898 28 33
4.3457193 0.85508019 -0.12961702 40 41
4.2146883 0.18636477 -0.32110688 37 21
4.1796527 0.18190542 -0.52027428 25 9
4.1893263 0.18232271 -0.43620399 29 13
4.204988 0.18226305 -0.37902281 23 17
4.1827741 0.30403239 -0.55844456 42 8
4.2696934 0.30734271 -0.21427977 24 29
4.3121624 0.31039441 -0.15570562 35 37
4.3584013 0.57217282 -0.052505828 25 51
4.2802601 0.69053751 -0.29990059 21 23
4.2297153 0.42910039 -0.45718214 28 12
4.3687205 0.57275575 0.0083897924 17 59
4.3038125 0.69358152 -0.24095315 23 27
4.240685 0.42946687 -0.39875275 29 16
4.3731394 0.57333666 0.069483005 30 67
4.3265662 0.69648784 -0.18140115 33 34
4.2558064 0.43024978 -0.34050676 20 20
4.3335819 0.69762164 -0.12083954 21 42
4.2700524 0.43169183 -0.28191602 23 24
4.2886105 0.43205807 -0.22325249 20 28
4.3013153 0.43258125 -0.16393609 33 36
4.2512875 0.68203861 -0.41788605 28 15
4.3231459 0.43401736 -0.10455128 20 44
