# .PCD v0.7 - Point Cloud Data file format
VERSION 0.7
FIELDS x y z intensity ring
SIZE 4 4 4 4 2
TYPE F F F F U
COUNT 1 1 1 1 1
WIDTH 1222
HEIGHT 1
VIEWPOINT 0 0 0 1 0 0 0
POINTS 1222
DATA ascii
3.8857105 0.051189434 -0.43866301 41 11
3.9619281 0.050192185 -0.17073947 41 33
3.9639292 0.050219428 -0.11590327 28 41
3.8857858 -0.08407522 -0.26858848 29 23
3.7620244 -0.30322325 -0.40542567 46 12
3.8891454 -0.084824681 -0.21479888 32 27
3.9703827 0.028130062 -0.061122142 28 49
3.8617876 -0.086944163 -0.3745389 39 15
3.8716087 -0.087834522 -0.32149062 34 19
3.8858657 0.037625466 -0.43866301 45 11
3.9520893 0.036261037 -0.17030501 46 33
3.9640803 0.036382429 -0.11590327 38 41
3.8854687 -0.097638629 -0.26858848 39 23
3.7460823 -0.3151055 -0.4038083 42 12
3.8888254 -0.098399818 -0.21479888 33 27
3.851511 -0.10017195 -0.37356478 41 15
3.866298 -0.10122148 -0.32107311 40 19
3.8810055 0.024025481 -0.43809697 48 11
3.9471967 0.022432322 -0.1700878 50 33
3.9591856 0.022511838 -0.11575581 48 41
3.8751326 -0.11092232 -0.26789266 46 23
3.8784778 -0.11169323 -0.21424241 61 27
3.8561122 -0.11375889 -0.37405184 42 15
3.865921 -0.11471677 -0.32107311 44 19
3.8760982 0.010459891 -0.43753096 47 11
3.9422555 0.0086382031 -0.16987057 52 33
3.9542422 0.0086758621 -0.11560835 49 41
3.8697364 -0.12429171 -0.26754475 49 23
3.8730745 -0.12507327 -0.21396418 98 27
3.8457444 -0.12689726 -0.37307775 45 15
3.8555369 -0.1278872 -0.32023805 52 19
3.8661752 -0.0030720157 -0.43639892 47 11
3.9372666 -0.0051216939 -0.16965334 53 33
3.9542484 -0.0051276218 -0.11560835 51 41
3.8742638 -0.13797291 -0.26789266 48 23
3.8403049 -0.14014263 -0.37259069 49 15
3.8500879 -0.14116566 -0.31982052 45 19
3.8611729 -0.01655153 -0.43583292 36 11
3.9272342 -0.018826928 -0.1692189 46 33
3.8588057 -0.15092136 -0.26684889 43 23
3.8298473 -0.15315619 -0.3716166 32 15
3.8396144 -0.15421115 -0.31898549 36 19
3.8561239 -0.029995624 -0.43526691 28 11
3.9221494 -0.032498799 -0.16900167 40 33
3.8632393 -0.16459906 -0.26719683 30 23
3.8243182 -0.1663112 -0.37112957 33 15
3.8390529 -0.16761295 -0.31898549 36 19
3.8510282 -0.043404669 -0.43470088 39 11
3.917017 -0.046135407 -0.16878444 33 33
3.8526754 -0.17763074 -0.26650101 77 23
3.8187432 -0.17942949 -0.37064251 35 15
3.833467 -0.1807815 -0.31856796 28 19
3.8458858 -0.056778505 -0.43413484 28 11
3.9068427 -0.059665091 -0.16835 28 33
3.8131235 -0.19251086 -0.37015548 26 15
3.8328125 -0.1941617 -0.31856796 27 19
3.8456643 -0.070202805 -0.43413484 33 11
3.8173976 -0.20608476 -0.37064251 35 15
3.822161 -0.20700757 -0.31773293 23 19
3.8453958 -0.083626255 -0.43413484 42 11
3.8116868 -0.2191266 -0.37015548 39 15
3.8214147 -0.22034813 -0.31773293 30 19
3.8351474 -0.096807659 -0.4330028 45 11
3.8108988 -0.23243053 -0.37015548 40 15
3.8298202 -0.11005639 -0.43243679 46 11
3.8100638 -0.24573161 -0.37015548 41 15
3.8244474 -0.12326911 -0.43187079 48 11
3.8091829 -0.25902972 -0.37015548 44 15
3.8239939 -0.13661817 -0.43187079 46 11
3.8082557 -0.27232468 -0.37015548 76 15
3.8185294 -0.14977573 -0.43130478 23 11
3.8080564 -0.16268964 -0.43017274 27 11
3.8025024 -0.17575674 -0.42960671 31 11
3.8018653 -0.18902889 -0.42960671 27 11
3.8011825 -0.20229872 -0.42960671 36 11
3.8004534 -0.21556608 -0.42960671 43 11
3.7947187 -0.22853708 -0.4290407 45 11
3.7889397 -0.24147065 -0.42847466 45 11
3.7831171 -0.2543667 -0.42790869 47 11
3.7772498 -0.267225 -0.42734265 60 11
3.776294 -0.28040844 -0.42734265 60 11
3.7653859 -0.29282793 -0.42621061 84 11
4.0321116 0.59057152 -0.29591027 40 22
4.0555673 0.59398496 -0.24066839 46 26
4.0341487 0.5764932 -0.29591027 42 22
4.0526743 0.5791232 -0.24037275 45 26
4.0262575 0.56104064 -0.29517964 53 22
4.0497274 0.56428897 -0.24007708 47 26
4.0281916 0.54698294 -0.29517964 49 22
4.0516725 0.55014938 -0.24007708 45 26
4.0107527 0.53109366 -0.34940276 41 18
4.0251322 0.53226942 -0.29481432 47 22
4.0486193 0.53535318 -0.23978141 43 26
4.0664988 0.53697866 -0.1839183 43 32
3.9878778 0.5139299 -0.34723255 42 18
4.0170727 0.5169521 -0.29408368 41 22
4.0405617 0.51995271 -0.2391901 41 26
4.0633936 0.52214861 -0.18369237 47 32
4.0094194 0.50246578 -0.34896871 20 18
4.0188532 0.50292671 -0.29408368 43 22
4.0423522 0.50584537 -0.2391901 37 26
4.0651913 0.50796151 -0.18369237 42 32
3.9909537 0.48673368 -0.4040356 43 14
3.9913685 0.48607701 -0.34723255 20 18
4.0156331 0.48829785 -0.29371837 42 22
4.0440931 0.49173182 -0.2391901 14 26
4.0619807 0.4931708 -0.18346642 27 32
3.9827471 0.47163892 -0.40302673 31 14
3.9880934 0.47156125 -0.34679851 20 18
4.0074072 0.47311756 -0.2929877 25 22
4.0358701 0.47645113 -0.23859876 14 26
4.0636773 0.47898886 -0.18346642 23 32
4.0708766 0.47911045 -0.12697618 36 40
3.9893117 0.45829681 -0.40353116 39 14
3.9897153 0.45763734 -0.34679851 31 18
4.0090342 0.45912623 -0.2929877 30 22
4.0325489 0.46179709 -0.2383031 14 26
4.055398 0.46367532 -0.18301451 17 32
4.0725241 0.46489751 -0.12697618 42 40
3.9760537 0.44273105 -0.40201792 47 14
3.9912882 0.44370782 -0.34679851 35 18
4.0106125 0.44512928 -0.2929877 34 22
4.0341363 0.44771802 -0.2383031 20 26
4.0619574 0.45006204 -0.18324047 25 32
4.0691543 0.45013398 -0.12681998 42 40
3.9775748 0.42884937 -0.40201792 47 14
3.9928129 0.42977294 -0.34679851 46 18
4.007184 0.4305988 -0.29262239 43 22
4.0307117 0.4331049 -0.23800746 28 26
4.0585361 0.43535224 -0.18301451 33 32
4.065731 0.43539962 -0.1266638 42 40
4.0787816 0.5563519 -0.19171825 36 31
3.9740996 0.41445106 -0.40151352 50 14
3.9942889 0.41583279 -0.34679851 46 18
4.0086622 0.41660848 -0.29262239 48 22
4.0321989 0.41903245 -0.23800746 32 26
4.0550632 0.42067185 -0.1827886 44 32
4.0622544 0.42069468 -0.12650762 43 40
4.0934582 0.42389727 -0.070494398 12 48
4.0707951 0.54080182 -0.19124891 47 31
3.9705722 0.40008229 -0.40100908 49 14
3.9907596 0.40139377 -0.34636447 36 18
4.0051298 0.40211955 -0.29225707 43 22
4.0286708 0.40446094 -0.23771179 41 26
4.0565066 0.40651447 -0.1827886 43 32
4.0636978 0.4065122 -0.12650762 43 40
4.0849628 0.4086197 -0.07032162 41 48
4.0776124 0.52722609 -0.19148357 49 31
3.9669931 0.38574323 -0.40050468 39 14
3.9871781 0.38698441 -0.34593043 44 18
4.0015454 0.38766038 -0.29189175 43 22
4.0250893 0.3899191 -0.23741612 40 26
4.0529284 0.39187601 -0.18256265 42 32
4.0601177 0.39184928 -0.12635145 43 40
4.0863643 0.39435804 -0.07032162 41 48
4.0645604 0.51112956 -0.1907796 45 31
3.963362 0.37143394 -0.40000024 43 14
3.9785848 0.37214571 -0.34506235 20 18
3.9979086 0.37323114 -0.29152644 43 22
4.0214553 0.37540722 -0.23712045 40 26
4.0443239 0.37680864 -0.18211074 41 32
4.0515079 0.37675813 -0.12603907 42 40
4.0827384 0.37963331 -0.07023523 39 48
4.0663195 0.4969385 -0.1907796 36 31
4.0834527 0.49902099 -0.134562 17 39
4.0479398 0.60659552 -0.25453594 53 25
3.9596796 0.35715476 -0.39949584 29 14
3.9748981 0.35781366 -0.3446283 17 18
3.9942198 0.358832 -0.29116109 42 22
4.0127983 0.36048356 -0.23652914 13 26
4.0456147 0.36268905 -0.18211074 26 32
4.0527987 0.36261341 -0.12603907 40 40
4.074079 0.36449766 -0.070062451 32 48
4.0896645 0.36515826 -0.013497177 12 56
4.0630693 0.48215604 -0.19054493 17 31
4.0752444 0.48359275 -0.13423218 42 39
4.0500326 0.59246182 -0.25453594 54 25
3.9609022 0.34333071 -0.39949584 25 14
3.9761231 0.3439365 -0.3446283 17 18
3.9954481 0.34488738 -0.29116109 22 22
4.0140319 0.34647405 -0.23652914 14 26
4.0369029 0.34771696 -0.18165886 28 32
4.0440803 0.34761751 -0.12572671 32 40
4.0753264 0.35027426 -0.070062451 14 48
4.0909142 0.35088047 -0.013497177 41 56
4.0647278 0.46797034 -0.19054493 17 31
4.0769076 0.46936455 -0.13423218 46 39
4.0332584 0.576361 -0.31000784 49 21
4.0421948 0.57691467 -0.25390977 46 25
3.9571187 0.32909489 -0.39899144 31 14
3.96737 0.32924056 -0.34376022 17 18
3.9866874 0.33012483 -0.29043046 26 22
4.0102425 0.3320531 -0.23623347 17 26
4.033113 0.33321673 -0.18143292 17 32
4.040288 0.3330929 -0.12557054 35 40
4.0715413 0.33564043 -0.069976054 14 48
4.0871305 0.33619308 -0.013480597 41 56
4.0564079 0.45267761 -0.19007561 25 31
4.0735545 0.45457965 -0.13406728 47 39
4.0253706 0.56090677 -0.3092424 52 21
4.0441842 0.56280124 -0.25390977 46 25
3.9582434 0.31527999 -0.39899144 42 14
3.9734612 0.31577981 -0.34419426 34 18
3.9878159 0.31620666 -0.29043046 33 22
4.0064011 0.31766284 -0.23593782 20 26
4.0292721 0.31874722 -0.18120697 28 32
4.0364432 0.31859902 -0.12541434 23 40
4.0677042 0.32103735 -0.069889672 14 48
4.0832949 0.3215363 -0.013464015 41 56
4.0579634 0.43851534 -0.19007561 30 31
4.0701475 0.4398239 -0.13390237 50 39
3.9745004 0.42884976 -0.47588962 54 10
4.087441 0.43302304 -0.077519052 25 47
4.0322442 0.547521 -0.30962515 46 21
4.046124 0.54868096 -0.25390977 49 25
3.9593198 0.30146119 -0.39899144 48 14
4.0640931 0.55111051 -0.19810961 49 30
3.974539 0.3019079 -0.34419426 43 18
3.9888952 0.30228466 -0.29043046 44 22
4.0074854 0.30367598 -0.23593782 25 26
4.0303602 0.30468047 -0.18120697 33 32
4.0375309 0.30450726 -0.12541434 30 40
4.0638146 0.30646506 -0.069803283 20 48
4.0843921 0.30728102 -0.013464015 42 56
4.0891709 0.30763614 0.043277238 20 64
4.054503 0.42383179 -0.18984096 40 31
4.0666881 0.42509747 -0.13373747 52 39
3.9611597 0.41343749 -0.47410056 37 10
4.0889273 0.41875255 -0.077519052 42 47
4.0193024 0.5314877 -0.30847692 45 21
4.0430675 0.5339027 -0.25359666 47 25
3.9553862 0.28728312 -0.398487 49 14
4.0610414 0.53626907 -0.19786626 43 30
3.9706001 0.28767708 -0.34376022 46 18
3.9899261 0.28835902 -0.29043046 43 22
4.0035424 0.28933027 -0.23564215 30 26
4.0264173 0.29025555 -0.18098104 48 32
4.0335841 0.29005793 -0.12525816 39 40
4.0052319 0.52607697 -0.36364478 43 17
4.0648594 0.29227784 -0.069803283 29 48
4.080452 0.29266876 -0.013447434 42 56
4.080245 0.29265413 0.043170772 42 64
4.0559573 0.40967637 -0.18984096 45 31
4.0631742 0.41040051 -0.13357256 53 39
3.9675183 0.40010276 -0.47469693 31 10
4.0853887 0.40398824 -0.077423938 44 47
4.0161891 0.51682019 -0.30809423 40 21
4.035007 0.51851839 -0.25297052 47 25
3.9514019 0.27313614 -0.3979826 48 14
4.0579348 0.52145553 -0.19762288 46 30
3.9666107 0.27347741 -0.34332618 35 18
3.9859331 0.27409235 -0.29006514 43 22
3.9995484 0.27501577 -0.2353465 38 26
4.0274062 0.27619898 -0.18098104 43 32
4.0246 0.27530351 -0.1249458 43 40
3.9872851 0.5095759 -0.3618356 41 17
4.065855 0.27808705 -0.069803283 32 48
4.0764599 0.27808782 -0.013430852 42 56
4.0812421 0.27840963 0.043170772 41 64
4.0523911 0.39503461 -0.18960629 47 31
4.0645819 0.3962149 -0.13357256 52 39
3.9590082 0.38529602 -0.47350422 23 10
4.0817976 0.38925385 -0.077328824 43 47
4.0179687 0.50279796 -0.30809423 34 21
4.0417438 0.5050472 -0.25328362 43 25
3.9473672 0.25902048 -0.39747819 39 14
4.0547743 0.50667024 -0.19737948 42 30
3.9625702 0.25930911 -0.34289214 36 18
3.9769125 0.25953707 -0.28933448 43 22
4.000484 0.26105312 -0.2353465 38 26
4.0133915 0.26117983 -0.1803032 42 32
4.0255365 0.26125333 -0.1249458 42 40
4.0088072 0.49810266 -0.36364478 17 17
4.0568228 0.26325461 -0.069630496 43 48
4.0724163 0.26353833 -0.013414272 42 56
4.077199 0.26384345 0.043117538 39 64
4.0487723 0.38042274 -0.18937162 45 31
4.0609651 0.38156027 -0.13340767 50 39
3.950443 0.37055358 -0.4723115 25 10
4.0781531 0.37454936 -0.077233709 27 47
4.01475 0.48816979 -0.30771151 29 21
4.0987496 0.37642744 -0.020651219 17 55
4.0385284 0.49033633 -0.25297052 36 25
3.9432821 0.24493635 -0.39697379 33 14
4.0515599 0.49191335 -0.1971361 20 30
3.9584796 0.24517237 -0.3424581 20 18
4.0738306 0.49388692 -0.14133158 42 38
3.9777942 0.24565347 -0.28933448 43 22
3.9963884 0.24678423 -0.23505083 42 26
4.0142789 0.24716891 -0.1803032 41 32
3.9901969 0.48236769 -0.41794187 21 13
4.0264239 0.24719998 -0.1249458 41 40
3.9907455 0.48172715 -0.3618356 31 17
4.0477371 0.24848862 -0.069457717 40 48
4.0683208 0.24902049 -0.01339769 42 56
4.0731049 0.2493089 0.043064311 38 64
4.0451007 0.36584097 -0.18913695 39 31
4.0771871 0.24812658 0.099656962 36 70
4.0572948 0.3669357 -0.13324276 46 39
3.946768 0.35631868 -0.47171515 28 10
4.0744553 0.35987511 -0.077138588 17 47
4.0065269 0.47298771 -0.30694604 23 21
4.0900774 0.36124459 -0.020600602 41 55
4.030303 0.47507179 -0.25234434 17 25
3.9391465 0.23088387 -0.39646935 27 14
4.0532527 0.47776777 -0.1971361 22 30
3.9543383 0.23106733 -0.34202406 20 18
4.0705676 0.47908151 -0.14115797 41 38
3.9736493 0.23148157 -0.28896916 42 22
3.9922428 0.23254715 -0.23475517 14 26
4.0051436 0.23258515 -0.17985132 31 32
3.9819784 0.46728122 -0.41689831 21 13
4.017283 0.23257525 -0.12463344 34 40
3.9874568 0.4672164 -0.36138329 20 17
4.0385971 0.23378928 -0.069284938 30 48
4.0641737 0.23453443 -0.013381109 42 56
4.0689588 0.23480617 0.04301108 13 64
4.0413775 0.35128954 -0.18890232 17 31
4.068048 0.2333298 0.099410899 41 70
4.0535722 0.35234141 -0.13307784 39 39
3.9479878 0.3425397 -0.47171515 28 10
4.0756865 0.34565043 -0.077138588 14 47
4.0081539 0.45899943 -0.30694604 29 21
4.0962949 0.3473846 -0.02062591 45 55
4.0319366 0.4610005 -0.25234434 23 25
3.9349616 0.21686327 -0.39596495 30 14
4.0449719 0.46248567 -0.19664936 14 30
3.9501469 0.21699421 -0.34159002 20 18
4.0722151 0.46486962 -0.14115797 43 38
3.9744332 0.21760954 -0.28896916 23 22
3.9880462 0.21834202 -0.2344595 17 26
3.9959557 0.21806814 -0.17939943 30 32
3.9885263 0.45393902 -0.41742009 54 13
4.0130801 0.21828413 -0.12447725 35 40
3.9940114 0.45385501 -0.3618356 28 17
4.0393887 0.21969052 -0.069284938 21 48
4.0599742 0.22008033 -0.013364526 41 56
4.0647607 0.22033536 0.042957846 14 64
4.0376015 0.33676845 -0.18866764 17 31
4.0638456 0.21886402 0.09928786 39 70
4.0497966 0.33777753 -0.13291295 23 39
3.9491596 0.3287566 -0.47171515 29 10
4.0669026 0.33061793 -0.076948367 17 47
4.0047765 0.44445765 -0.30656332 33 21
4.0875158 0.33228007 -0.020575296 46 55
4.0285616 0.44637606 -0.2520313 29 25
3.9307263 0.20287469 -0.39546052 28 14
4.0465617 0.44836327 -0.19664936 23 30
3.9459054 0.20295313 -0.34115598 20 18
4.0688457 0.45010465 -0.14098434 47 38
3.9652081 0.20323375 -0.28823853 27 22
3.9788141 0.20391825 -0.23386818 22 26
3.9966924 0.20411833 -0.17939943 17 32
3.9802005 0.4389275 -0.41637653 54 13
4.0088267 0.20402518 -0.12432107 35 40
3.9906216 0.43936756 -0.36138329 38 17
4.0351381 0.20533964 -0.069198549 17 48
4.0557246 0.20565845 -0.013347947 41 56
4.065505 0.20614536 0.042957846 14 64
4.0337734 0.32227808 -0.18843298 23 31
4.0645852 0.20467719 0.09928786 39 70
4.0409884 0.32284969 -0.13258314 28 39
4.0958042 0.44801176 -0.084837548 17 46
3.945334 0.31457821 -0.47111878 51 10
4.0767155 0.56695825 -0.20596068 50 29
4.0630479 0.31603536 -0.076853245 20 47
4.0063038 0.43047565 -0.30656332 39 21
4.0836658 0.31762543 -0.020549988 43 55
4.0300956 0.43231106 -0.2520313 36 25
3.9363794 0.18938699 -0.39596495 36 14
4.1035528 0.31843868 0.036316331 25 63
4.0481024 0.43423542 -0.19664936 30 30
3.9465897 0.18917812 -0.34115598 25 18
4.0654235 0.43536884 -0.14081071 43 38
3.960912 0.18915819 -0.28787321 33 22
3.9795015 0.19002835 -0.23386818 20 26
3.9973807 0.19016603 -0.17939943 29 32
3.9767635 0.42450553 -0.41585475 54 13
4.0045218 0.18979859 -0.12416489 25 40
3.9921308 0.42543501 -0.36138329 44 17
4.0308366 0.19102114 -0.069112159 17 48
4.0514226 0.19126889 -0.013331365 36 56
4.0562115 0.19149055 0.042851385 20 64
4.0298934 0.30781853 -0.18819831 31 31
4.0502954 0.18979983 0.098918766 23 70
4.0371075 0.30836475 -0.13241823 34 39
4.0874 0.43266347 -0.084629864 40 46
3.946408 0.30080447 -0.47111878 51 10
4.0687723 0.55138451 -0.20545647 32 29
4.0591407 0.30148375 -0.076758131 25 47
4.007782 0.41648844 -0.30656332 42 21
4.0847497 0.30336887 -0.020549988 46 55
4.0266161 0.41772774 -0.25171819 50 25
3.9320469 0.17542833 -0.39546052 48 14
4.0946665 0.30338031 0.036227319 42 63
4.0446253 0.41958886 -0.19640598 37 30
3.947226 0.17540081 -0.34115598 28 18
4.0619478 0.42066243 -0.14063708 44 38
3.9615481 0.17533086 -0.28787321 43 22
3.9751542 0.17592014 -0.23357251 28 26
3.9246225 0.40511093 -0.49040207 40 9
3.9930298 0.17599612 -0.17917348 33 32
3.9732747 0.41011289 -0.415333 39 13
4.0051599 0.17581904 -0.12416489 30 40
3.9886384 0.4109889 -0.36093101 43 17
4.026484 0.17673513 -0.06902577 23 48
4.0520658 0.17712563 -0.013331365 40 56
4.0518599 0.17711683 0.042798154 20 64
4.0259624 0.29339004 -0.18796366 41 31
4.0509329 0.17566049 0.098918766 17 70
4.0431437 0.29463065 -0.13258314 41 39
4.0888853 0.41839314 -0.084629864 42 46
3.9424827 0.28667045 -0.47052246 47 10
4.070672 0.53717846 -0.20545647 48 29
4.0601687 0.2873129 -0.076758131 29 47
4.0042505 0.40200013 -0.3061806 42 21
4.0807958 0.2887589 -0.020524679 47 55
4.0230837 0.4031741 -0.25140512 45 25
3.927665 0.16150221 -0.39495611 49 14
4.0907125 0.28873667 0.036182817 45 63
4.0460653 0.40546796 -0.19640598 48 30
3.9428372 0.16142231 -0.34072194 46 18
4.0633912 0.40648103 -0.14063708 44 38
3.9571536 0.16130303 -0.28750789 46 22
3.970757 0.16184466 -0.23327686 30 26
3.9210761 0.39091882 -0.48977974 37 9
3.9936197 0.16205679 -0.17917348 42 32
3.9746819 0.39624107 -0.415333 38 13
4.0057492 0.16183734 -0.12416489 40 40
3.9850931 0.39657235 -0.3604787 42 17
4.0220809 0.16248187 -0.06893938 28 48
4.0476627 0.16278389 -0.013314784 42 56
4.0474577 0.16277583 0.04274492 25 64
4.0269618 0.27933502 -0.18796366 48 31
4.0391617 0.28017312 -0.13241823 48 39
4.0803714 0.40313864 -0.084422186 43 46
3.9385064 0.27256748 -0.46992609 51 10
4.0675693 0.52233046 -0.20520437 35 29
4.0611463 0.27313852 -0.076758131 33 47
4.0006671 0.38754156 -0.30579787 42 21
4.0767894 0.27418029 -0.020499371 49 55
4.0194993 0.38865012 -0.25109202 49 25
3.9232335 0.14760885 -0.39445171 50 14
4.0867076 0.27412429 0.036138307 47 63
4.0424852 0.39086342 -0.1961626 43 30
3.9383991 0.14747661 -0.34028789 34 18
4.0598116 0.39181662 -0.14046347 43 38
3.9527087 0.14730802 -0.28714254 48 22
3.9663093 0.14780197 -0.23298119 37 26
3.9322937 0.37817514 -0.49102443 20 9
3.9891694 0.14793505 -0.17894754 45 32
3.9710908 0.38189039 -0.41481119 36 13
4.0012956 0.14767404 -0.12400872 44 40
3.9864531 0.38265935 -0.3604787 42 17
4.0226235 0.1484412 -0.06893938 31 48
4.0432096 0.14847507 -0.013298201 42 56
4.043004 0.1484677 0.042691689 28 64
4.0279126 0.26527658 -0.18796366 49 31
4.0301423 0.26542196 -0.13208844 51 39
4.076777 0.38842085 -0.08431834 40 46
3.9394341 0.25881788 -0.46992609 51 10
4.0974655 0.39038378 -0.027772037 12 54
4.0594578 0.50689268 -0.2047002 41 29
4.0768018 0.50905609 -0.14790218 47 37
4.057086 0.25864607 -0.07666301 42 47
3.9970317 0.37311292 -0.30541515 35 21
4.0727324 0.25963318 -0.020474065 49 55
4.0158629 0.37415618 -0.25077897 40 25
3.9187531 0.13374838 -0.3939473 38 14
4.0776591 0.25922942 0.036049295 43 63
4.0338798 0.37582755 -0.19567585 40 30
3.9388897 0.13372813 -0.34028789 40 18
4.0561781 0.37718207 -0.14028984 43 38
3.9531989 0.13350959 -0.28714254 46 22
3.9668009 0.13395606 -0.23298119 42 26
3.9335899 0.36444661 -0.49102443 20 9
3.979677 0.13368334 -0.17849565 42 32
3.9624963 0.3671129 -0.41376767 30 13
3.9917967 0.13338159 -0.12369634 42 40
3.9778476 0.3678287 -0.35957411 36 17
4.0181203 0.13423644 -0.068852983 42 48
4.0387063 0.13419931 -0.013281621 42 56
4.0385013 0.13419269 0.042638462 29 64
4.0188437 0.25059989 -0.18749434 48 31
4.0260558 0.25104481 -0.13192353 50 39
4.0731297 0.37373307 -0.084214501 14 46
3.9403131 0.24506514 -0.46992609 38 10
4.0938239 0.37562367 -0.027738001 38 54
4.0612025 0.49271944 -0.2047002 38 29
4.0785537 0.49482226 -0.14790218 55 37
4.0465374 0.60999471 -0.26869607 53 24
4.0429935 0.24359052 -0.076377667 36 47
3.9933441 0.35871434 -0.3050324 30 21
4.0686226 0.24511768 -0.020448755 44 55
4.0171447 0.36013591 -0.25077897 28 25
3.9191964 0.12006857 -0.3939473 45 14
4.0735483 0.24469769 0.036004793 37 63
4.0301924 0.36130041 -0.19543247 17 30
3.9293745 0.11968422 -0.33941981 23 18
4.0475159 0.36213443 -0.13994257 41 38
3.9486566 0.11956335 -0.28677726 46 22
3.9622557 0.11996221 -0.23268554 39 26
3.9348381 0.35071358 -0.49102443 25 9
3.9801192 0.11979087 -0.17849565 41 32
3.9637537 0.35327896 -0.41376767 31 13
3.9872427 0.11930203 -0.12354016 41 40
3.9791074 0.35394117 -0.35957411 20 17
4.0085702 0.11992013 -0.068680204 26 48
4.034152 0.11995681 -0.01326504 42 56
4.0289497 0.11980695 0.042531993 41 64
4.0097218 0.23598973 -0.18702501 41 31
4.0269079 0.23698971 -0.13192353 43 39
4.0694294 0.35907549 -0.084110655 13 46
3.9312329 0.23073438 -0.46873337 23 10
4.0901289 0.36089373 -0.027703967 42 54
4.0579376 0.47795671 -0.20444809 13 29
4.0752935 0.47999865 -0.14772069 39 37
4.0387702 0.59441173 -0.26803505 53 24
4.0388274 0.22919643 -0.076282553 17 47
3.9945722 0.34477279 -0.3050324 30 21
4.0594692 0.2303541 -0.02039814 40 55
4.0134053 0.34568503 -0.25046587 17 25
3.9046731 0.10599662 -0.39243403 42 14
4.0693855 0.23019774 0.035960287 17 63
4.0264535 0.34680367 -0.19518909 17 30
3.9198096 0.10570836 -0.33855173 23 18
4.043777 0.34757781 -0.13976896 42 38
3.93908 0.10552163 -0.28604659 43 22
3.9526711 0.10587278 -0.23209421 17 26
3.9360383 0.33697629 -0.49102443 25 9
3.9655335 0.10551254 -0.17781782 35 32
3.9649627 0.33944073 -0.41376767 27 13
3.9876347 0.10538324 -0.12354016 40 40
3.9753571 0.33962747 -0.35912183 23 17
3.9989691 0.10567213 -0.068507425 25 48
4.0245495 0.10562121 -0.013231877 37 56
3.9955602 0.22117366 -0.18632104 28 31
4.0177312 0.22238603 -0.13159372 40 39
4.0656772 0.3444483 -0.084006824 13 46
3.9320145 0.21701042 -0.46873337 25 10
4.0913639 0.3466143 -0.027703967 42 54
4.0546203 0.46322277 -0.20419599 14 29
4.0769444 0.46577024 -0.14772069 39 37
4.0457587 0.58102 -0.26836556 45 24
4.0396028 0.21509689 -0.076282553 20 47
3.9858141 0.3300083 -0.30426696 28 21
4.0602484 0.2161825 -0.02039814 43 55
4.0046406 0.33085573 -0.24983971 23 25
3.9000463 0.092253268 -0.39192966 25 14
4.0651712 0.21572988 0.035915781 14 63
4.0226622 0.33233741 -0.19494572 20 30
3.9151747 0.091912895 -0.33811769 20 18
4.0399857 0.33305171 -0.13959533 31 38
3.9394243 0.091771044 -0.28604659 23 22
4.0746632 0.45614672 -0.091515288 12 45
3.9530165 0.092074744 -0.23209421 17 26
3.9470801 0.32404277 -0.4922691 28 9
3.9608841 0.091558874 -0.17759188 33 32
3.9562111 0.32478869 -0.41272411 37 13
3.9829817 0.09135326 -0.12338398 38 40
3.9665921 0.32493973 -0.35821724 29 17
3.9943154 0.091602549 -0.068421036 19 48
4.0148959 0.091354124 -0.013198715 40 56
4.001296 0.20748049 -0.18655568 17 31
4.0134921 0.20810473 -0.13142881 28 39
4.0618715 0.32985166 -0.083902985 14 46
3.9277899 0.20303091 -0.46813706 28 10
4.0775981 0.33112252 -0.027601864 42 54
4.1025066 0.33313534 0.029195616 8 62
4.0462856 0.44796902 -0.20369183 20 29
4.0735793 0.4509871 -0.14753924 49 37
4.0378809 0.56550896 -0.26770455 45 24
4.0303435 0.2005046 -0.076092325 17 47
3.9869416 0.31609321 -0.30426696 34 21
4.055985 0.20176317 -0.020372834 30 55
4.0057712 0.31687489 -0.24983971 29 25
3.9003444 0.078639001 -0.39192966 23 14
4.0658998 0.20153847 0.035915781 17 63
4.0188189 0.31790179 -0.19470234 28 30
3.9154718 0.078245826 -0.33811769 23 18
4.0411229 0.31894749 -0.13959533 32 38
3.9297493 0.077831343 -0.28531596 21 22
4.0961094 0.44407323 -0.091965549 42 45
3.9433331 0.078087434 -0.23150289 17 26
3.9481869 0.31026289 -0.4922691 50 9
3.9611793 0.077732258 -0.17759188 17 32
3.9622779 0.31136444 -0.41324586 41 13
3.9682865 0.077172153 -0.12291543 35 40
3.9726667 0.31147897 -0.35866952 36 17
3.994611 0.077659227 -0.068421036 17 48
4.0151901 0.077338964 -0.013198715 40 56
3.9920177 0.19303633 -0.18608637 25 31
4.0042105 0.19361772 -0.131099 28 39
4.0530305 0.31490058 -0.0836953 17 46
3.923516 0.18908355 -0.46754068 43 10
4.0787292 0.31688702 -0.027601864 38 54
4.0936742 0.31804219 0.029124057 42 62
4.0478244 0.43384212 -0.20369183 28 29
4.0751286 0.4367649 -0.14753924 41 37
4.0209222 0.54882735 -0.32290122 52 20
4.0398302 0.55141068 -0.26770455 48 24
4.0631251 0.55314869 -0.21229851 53 28
4.0310187 0.18643485 -0.076092325 24 47
3.9880209 0.30217427 -0.30426696 38 21
4.0516696 0.18737622 -0.020347524 35 55
4.0018764 0.30251604 -0.24952662 34 25
3.9005952 0.06502378 -0.39192966 32 14
4.0565891 0.18689099 0.035826772 20 63
4.0199041 0.30387157 -0.19470234 32 30
3.9107406 0.064500436 -0.33768365 20 18
4.0422115 0.3048394 -0.13959533 44 38
3.9250107 0.064036898 -0.28495064 29 22
4.0678053 0.42664775 -0.091290154 49 45
3.938591 0.0642455 -0.23120722 20 26
3.9442987 0.29610986 -0.49164674 47 9
3.9614267 0.063904688 -0.17759188 28 32
3.9583821 0.2971614 -0.41272411 43 13
3.9685316 0.063319772 -0.12291543 23 40
3.9737296 0.2976099 -0.35866952 43 17
3.9898591 0.063639924 -0.068334647 17 48
4.0004377 0.063100345 -0.01314897 38 56
3.9976573 0.17932089 -0.18632104 31 31
4.0048618 0.17963925 -0.131099 35 39
4.0491195 0.30038312 -0.083591461 23 46
3.9191928 0.1751685 -0.46694434 51 10
4.0798101 0.30264768 -0.027601864 44 54
4.0897732 0.30338281 0.029088281 46 62
4.0493145 0.41970992 -0.20369183 34 29
4.0716586 0.42202288 -0.14735776 65 37
4.0228138 0.53478831 -0.32290122 42 20
4.0417304 0.53730565 -0.26770455 48 24
4.0650315 0.53896242 -0.21229851 43 28
4.02665 0.17215262 -0.075997211 25 47
3.9840789 0.28789431 -0.30388424 42 21
4.0473032 0.17302185 -0.020322217 41 55
4.0029078 0.28854507 -0.24952662 40 25
3.9007983 0.051407769 -0.39192966 41 14
4.0522213 0.17252034 0.035782266 26 63
4.0159593 0.2894806 -0.19445896 37 30
3.9159224 0.05090899 -0.33811769 28 18
4.0382671 0.29037118 -0.1394217 50 38
3.9252102 0.050335664 -0.28495064 36 22
4.0841894 0.41395611 -0.091627844 52 45
3.9387913 0.050496858 -0.23120722 28 26
3.9403596 0.28198779 -0.49102443 51 9
3.9566312 0.050017934 -0.17736593 33 32
3.9544349 0.28298929 -0.41220233 48 13
3.9637311 0.049409058 -0.12275925 31 40
3.9697773 0.28338459 -0.35821724 46 17
3.990057 0.049712326 -0.068334647 20 48
3.9932683 0.16516231 -0.18608637 38 31
4.0054646 0.16565856 -0.131099 44 39
4.05513 0.28659764 -0.0836953 25 46
3.9197803 0.16148689 -0.46694434 54 10
4.0758538 0.28805411 -0.02756783 48 54
4.0858197 0.28875446 0.029052502 43 62
4.0457864 0.40507582 -0.20343973 44 29
4.0681348 0.40731046 -0.14717628 65 37
4.0147705 0.51946247 -0.322101 44 20
4.0386338 0.52255327 -0.26737407 44 24
4.0619359 0.52412993 -0.21203773 43 28
4.0222311 0.15790318 -0.075902097 29 47
3.9800856 0.27364555 -0.30350152 43 21
4.0428863 0.15870027 -0.020296907 45 55
3.9989123 0.27423114 -0.24921355 49 25
3.8959794 0.037747718 -0.39142522 49 14
4.0478024 0.15818244 0.03573776 33 63
4.0169454 0.27546048 -0.19445896 49 30
3.9110954 0.037196964 -0.33768365 44 18
4.0242996 0.27525625 -0.13890083 54 38
3.9253619 0.036633819 -0.28495064 46 22
4.0806346 0.39921108 -0.091515288 41 45
3.9389434 0.036747605 -0.23120722 30 26
3.9413199 0.26823166 -0.49102443 38 9
3.951787 0.036165431 -0.17713998 38 32
3.9553986 0.26918402 -0.41220233 45 13
3.9638793 0.035572752 -0.12275925 40 40
3.9657741 0.26919058 -0.35776493 45 17
3.9952049 0.035824262 -0.068421036 23 48
3.9373486 0.38313106 -0.5264954 40 8
3.9888294 0.15103656 -0.18585171 48 31
4.0060186 0.15167588 -0.131099 49 39
4.0561056 0.27244085 -0.0836953 25 46
3.9153593 0.14761968 -0.46634796 45 10
4.071846 0.27349189 -0.027533798 43 54
4.0818138 0.2741574 0.029016722 41 62
4.0471754 0.39095095 -0.20343973 41 29
4.0910387 0.2740562 0.085840255 17 69
4.0645576 0.39262775 -0.1469948 64 37
3.9819889 0.50179613 -0.37526909 39 16
4.0165591 0.50544512 -0.322101 43 20
4.0354834 0.50782907 -0.26704356 41 24
4.0587869 0.50932556 -0.21177691 45 28
4.022758 0.14386201 -0.075902097 31 47
3.9760418 0.25942823 -0.30311877 40 21
4.0434155 0.144587 -0.020296907 50 55
3.9948657 0.25994864 -0.24890046 40 25
3.8960876 0.02414798 -0.39142522 51 14
4.0433331 0.14387754 0.035693254 32 63
4.007915 0.26079249 -0.1939722 44 30
3.9112017 0.023544464 -0.33768365 47 18
4.0202489 0.26088554 -0.1387272 49 38
3.9254663 0.022931522 -0.28495064 48 22
4.0770264 0.38449588 -0.091402717 23 45
3.9340568 0.022973506 -0.23091157 34 26
3.9372814 0.25415465 -0.49040207 41 9
4.0978818 0.38573837 -0.034892768 40 53
3.9468944 0.022347361 -0.17691405 47 32
3.9513519 0.25505719 -0.41168055 36 13
3.958982 0.021713339 -0.12260307 44 40
3.96172 0.25502792 -0.35731265 42 17
3.9853072 0.021832803 -0.068248257 20 48
3.9386618 0.3693848 -0.5264954 36 8
3.9843407 0.13694382 -0.18561704 49 31
3.9965348 0.13735473 -0.13076919 53 39
4.0470538 0.25764948 -0.083487622 38 46
3.9059277 0.13361897 -0.46515527 36 10
4.0627961 0.25864542 -0.027465727 42 54
4.0727668 0.25927621 0.028945165 40 62
4.0435429 0.37635911 -0.20318761 40 29
4.0869813 0.25945938 0.085734673 42 69
4.0609283 0.37797502 -0.14681333 64 37
3.9935977 0.48910496 -0.37620845 17 16
4.0182996 0.49142164 -0.322101 17 20
4.0372319 0.49373952 -0.26704356 41 24
4.0605397 0.49515465 -0.21177691 40 28
4.0730886 0.49596506 -0.15552911 51 36
4.0182385 0.12966117 -0.075806975 41 47
3.9719472 0.24524246 -0.30273604 36 21
4.0339007 0.13015611 -0.020246293 46 55
3.9957488 0.24600238 -0.24890046 41 25
3.8812249 0.010521902 -0.38991198 50 14
4.0388136 0.12960574 0.035648752 40 63
4.0038161 0.2464958 -0.19372883 42 30
3.9012976 0.0098760296 -0.33681557 41 18
4.0211353 0.24685064 -0.1387272 43 38
3.9155488 0.0092150234 -0.28421998 47 22
4.0733657 0.36981076 -0.091290154 34 45
3.9291215 0.0092339758 -0.2306159 43 26
3.9282403 0.23980887 -0.48915741 38 9
4.0942235 0.37098122 -0.034850005 45 53
3.9419532 0.008563892 -0.17668809 43 32
3.9522183 0.24126282 -0.41168055 30 13
3.9540362 0.0078885444 -0.12244688 42 40
3.9576161 0.24089685 -0.35686034 39 17
3.9903588 0.0079265861 -0.068334647 34 48
3.9399273 0.35563403 -0.5264954 29 8
3.9798021 0.12288426 -0.18538238 49 31
3.99699 0.12340339 -0.13076919 45 39
4.0379486 0.24292466 -0.083279938 14 46
3.9063704 0.11998393 -0.46515527 40 10
4.0636744 0.24446206 -0.027465727 42 54
4.0686555 0.24475975 0.028909385 39 62
4.0348849 0.36135271 -0.20268345 38 29
4.0679021 0.24400221 0.085312329 43 69
4.0572462 0.36335236 -0.14663187 38 37
3.985395 0.4739846 -0.37526909 14 16
4.0100923 0.47621542 -0.32130075 14 20
4.0339756 0.4790549 -0.26671305 40 24
4.0572848 0.48038992 -0.2115161 17 28
4.0797563 0.48233154 -0.15572019 41 36
4.0086727 0.11535321 -0.075616747 35 47
3.972779 0.23137629 -0.30273604 30 21
4.0293326 0.1159339 -0.020220986 41 55
3.991601 0.23176587 -0.24858738 29 25
3.8762631 -0.0030180232 -0.38940758 36 14
4.0292459 0.11522765 0.03555974 41 63
3.9946804 0.23194343 -0.19324207 28 30
3.891346 -0.0037235166 -0.33594748 34 18
4.0119948 0.2322392 -0.13837995 42 38
3.9055839 -0.0044325064 -0.28348935 44 22
4.064672 0.35472196 -0.091065027 13 45
3.9191473 -0.0044609127 -0.23002458 40 26
3.9241009 0.22581233 -0.48853508 23 9
4.0905128 0.35625428 -0.034807242 49 53
3.9369645 -0.0051853601 -0.17646216 42 32
3.9480717 0.22718188 -0.41115877 29 13
3.9440444 -0.0058897929 -0.12213452 43 40
3.9584327 0.22708075 -0.35686034 23 17
3.9411449 0.34187895 -0.5264954 30 8
3.9752142 0.10885806 -0.18514772 41 31
3.9874055 0.10918368 -0.13043939 38 39
4.0337811 0.22854733 -0.083176106 14 46
3.9018028 0.10621575 -0.46455893 23 10
4.0545192 0.22971402 -0.027397661 41 54
4.0694852 0.230556 0.028909385 17 62
4.031146 0.34683868 -0.20243135 13 29
4.0637379 0.22952116 0.085206747 42 69
4.0535116 0.34876004 -0.14645039 39 37
3.9912307 0.4612619 -0.43184307 42 12
3.9919701 0.46064138 -0.37573877 23 16
4.0117297 0.46221465 -0.32130075 20 20
4.0356231 0.46497074 -0.26671305 25 24
4.0589371 0.46622443 -0.2115161 17 28
4.0714879 0.46694773 -0.15533806 49 36
3.9990559 0.1011136 -0.075426519 14 47
3.9735627 0.21750729 -0.30273604 23 21
4.0247145 0.10174517 -0.020195678 45 55
3.9923856 0.21783115 -0.24858738 17 25
3.8712547 -0.016522642 -0.38890317 45 14
3.990479 0.2177279 -0.19299869 14 30
3.8863282 -0.017279878 -0.33551344 20 18
4.007792 0.21796398 -0.13820633 43 38
3.9005582 -0.018037662 -0.28312403 42 22
4.0658855 0.34053144 -0.091065027 14 45
3.9141169 -0.01811339 -0.22972892 37 26
3.9248648 0.21211328 -0.48853508 31 9
4.0917315 0.34197354 -0.034807242 40 53
3.9319272 -0.018899128 -0.17623621 38 32
3.9438751 0.21313284 -0.41063702 29 13
3.9489975 -0.019686697 -0.12229071 43 40
3.9592016 0.21326184 -0.35686034 25 17
3.9373758 0.32770938 -0.52582979 43 8
3.9655836 0.094749443 -0.18467841 25 31
3.9877622 0.095264368 -0.13043939 40 39
4.0345545 0.21446542 -0.083176106 17 46
3.8922238 0.092366546 -0.46336621 25 10
4.0503035 0.2152963 -0.027363624 40 54
4.0602789 0.21582258 0.028837826 14 62
4.0273552 0.33235517 -0.20217925 14 29
4.0595222 0.21507215 0.085101157 36 69
4.0447445 0.33378792 -0.14608744 28 37
3.9928167 0.44732705 -0.43184307 49 12
3.9985008 0.44725803 -0.37620845 28 16
4.0083656 0.44765443 -0.32090059 28 20
4.0322638 0.45032659 -0.26638255 29 24
4.0506153 0.45094708 -0.2109945 14 28
4.0730929 0.45273271 -0.15533806 41 36
4.0848694 0.45332161 -0.098850682 13 44
3.9943862 0.087048106 -0.075331397 14 47
3.9643397 0.20312947 -0.3019706 29 21
4.0200462 0.087590091 -0.02017037 43 55
3.9831541 0.20338884 -0.24796119 23 25
3.8661993 -0.029992333 -0.38839874 27 14
3.986227 0.20354451 -0.19275531 17 30
3.8812635 -0.030801252 -0.3350794 20 18
4.0035372 0.20372088 -0.1380327 35 38
3.9004714 -0.031653043 -0.28312403 29 22
4.0620666 0.3259376 -0.090952463 23 45
3.9140298 -0.031776097 -0.22972892 17 26
3.9255812 0.19841166 -0.48853508 41 9
4.082932 0.3268919 -0.034721725 25 53
3.9268429 -0.032577801 -0.17601027 26 32
3.9396281 0.19911587 -0.41011521 34 13
4.1079984 0.32817397 0.02210187 42 61
3.93891 -0.033376951 -0.12197834 41 40
3.9499753 0.19894344 -0.35595578 25 17
3.9434354 0.31435648 -0.5264954 51 8
3.9608967 0.080807902 -0.18444374 17 31
3.9830739 0.081245348 -0.13027447 29 39
4.0252929 0.199889 -0.082968414 17 46
3.8925226 0.078779586 -0.46336621 28 10
4.0460362 0.20091079 -0.02732959 38 54
4.0610075 0.20164825 0.028837826 14 62
4.0235128 0.31790245 -0.20192717 20 29
4.0552564 0.20065545 0.084995583 17 69
4.040904 0.31927419 -0.14590596 37 37
3.9844699 0.43231308 -0.43076476 54 12
3.9950888 0.43276116 -0.37573877 35 16
4.0099039 0.43365988 -0.32090059 31 20
4.028851 0.43571156 -0.26605207 42 24
4.052165 0.43680501 -0.2109945 20 28
4.0746484 0.43851224 -0.15533806 44 36
4.0864272 0.43905994 -0.098850682 44 44
3.9946659 0.07310456 -0.075331397 17 47
3.9600449 0.18905438 -0.30158788 32 21
4.0153284 0.073468842 -0.020145062 42 55
3.9788551 0.18924874 -0.24764812 28 25
3.8610971 -0.043426927 -0.38789433 23 14
3.9869132 0.18962876 -0.19275531 25 30
3.8811324 -0.044349205 -0.3350794 20 18
4.0042243 0.18974468 -0.1380327 32 38
3.8953507 -0.045205366 -0.28275871 20 22
4.0532107 0.31099284 -0.090727322 24 45
3.9039133 -0.045312971 -0.2291376 17 26
3.9163387 0.18424539 -0.48729041 44 9
4.0790634 0.31225687 -0.034678962 37 53
3.9167163 -0.046157569 -0.17555839 17 32
3.9402993 0.18536279 -0.41011521 40 13
4.0941629 0.31269202 0.022020711 28 61
3.9506457 0.18515424 -0.35595578 28 17
3.9395676 0.30021352 -0.52582979 55 8
3.956161 0.066900246 -0.18420908 23 31
3.9683435 0.067098007 -0.12977977 28 39
4.0209723 0.18560839 -0.082864583 17 46
3.88781 0.065111957 -0.46276987 30 10
4.041718 0.18655771 -0.027295554 37 54
4.0566926 0.18724294 0.02880205 20 62
4.0196185 0.30348051 -0.20167507 28 29
4.0509377 0.18627109 0.084889993 20 69
4.0419936 0.30516684 -0.14590596 54 37
3.9810112 0.41788247 -0.43022567 32 12
3.9965749 0.41881308 -0.37573877 47 16
4.0064368 0.41914091 -0.32050049 43 20
4.0253854 0.42112583 -0.26572156 47 24
4.0486984 0.4221392 -0.21073368 28 28
4.0711851 0.42376849 -0.15514699 50 36
4.077992 0.42375842 -0.098608106 41 44
3.989898 0.059089459 -0.075236283 20 47
3.9606805 0.1752301 -0.30158788 38 21
4.0055618 0.059310917 -0.020094447 34 55
3.9794917 0.1753588 -0.24764812 33 25
3.8609219 -0.056904417 -0.38789433 29 14
3.9825618 0.17549285 -0.19251193 30 30
3.8759735 -0.057817508 -0.33464536 25 18
3.9998698 0.17554909 -0.13785908 45 38
3.8901834 -0.05872234 -0.2823934 27 22
4.0492868 0.29647824 -0.090614766 23 45
3.9037311 -0.058939897 -0.2291376 20 26
3.9169579 0.17057368 -0.48729041 48 9
4.0801282 0.29801637 -0.034678962 49 53
3.9115367 -0.059748106 -0.17533244 23 32
3.9359546 0.17139316 -0.40959346 44 13
4.0952291 0.29839882 0.022020711 43 61
3.9462929 0.17114906 -0.35550347 42 17
3.9405916 0.28646004 -0.52582979 46 8
3.9563704 0.053090252 -0.18420908 30 31
3.9685535 0.053245489 -0.12977977 33 39
4.021596 0.17157143 -0.082864583 23 46
3.8830497 0.051478188 -0.46217352 50 10
4.0373492 0.17223722 -0.027261522 43 54
4.0473304 0.17265902 0.028730491 25 62
4.0206537 0.28944758 -0.20167507 34 29
4.0515633 0.17212954 0.084889993 17 69
4.0430341 0.2910558 -0.14590596 46 37
3.9775002 0.40348125 -0.42968652 42 12
3.9930601 0.40435767 -0.37526909 44 16
4.0078754 0.40515327 -0.32050049 46 20
4.0268312 0.40707204 -0.26572156 49 24
4.0501475 0.40800402 -0.21073368 29 28
4.0676684 0.40905422 -0.15495591 50 36
4.0794463 0.40952101 -0.098608106 46 44
3.9900801 0.045161761 -0.075236283 23 47
3.9562869 0.16120273 -0.30120516 41 21
3.9701071 0.16106617 -0.24702196 43 25
3.855726 -0.0702857 -0.3873899 35 14
3.9781599 0.1613896 -0.19226855 35 30
3.8757482 -0.071346827 -0.33464536 28 18
4.0004582 0.16158587 -0.13785908 51 38
3.884969 -0.072203778 -0.28202808 33 22
4.0502973 0.28234184 -0.090614766 25 45
3.8985116 -0.072468534 -0.22884193 23 26
3.9125719 0.15670341 -0.48666805 36 9
4.0761557 0.28342611 -0.034636199 48 53
3.9063108 -0.073303051 -0.1751065 28 32
3.9315598 0.15745609 -0.40907168 45 13
4.091258 0.2837567 0.021993659 42 61
3.9418905 0.15717652 -0.35505119 45 17
3.9366236 0.27236173 -0.52516419 43 8
3.9515371 0.03923342 -0.18397442 35 31
3.9637182 0.039346103 -0.12961486 45 39
4.0171747 0.15733877 -0.082760736 25 46
3.8832057 0.0379235 -0.46217352 52 10
4.0379257 0.15814319 -0.027261522 46 54
4.0479083 0.15853018 0.028730491 30 62
4.0166574 0.27507061 -0.20142297 45 29
4.0390406 0.27660048 -0.14572448 63 37
3.9739373 0.38910967 -0.42914739 52 12
3.9894929 0.38993195 -0.37479943 43 16
4.0043044 0.39067608 -0.32010037 43 20
4.0232615 0.39252818 -0.26539105 50 24
4.046577 0.39338008 -0.21047287 43 28
4.0640979 0.39436969 -0.15476485 50 36
4.0758753 0.39479601 -0.098486818 45 44
4.0967627 0.39682198 -0.041301336 10 52
4.0788078 0.52812332 -0.16302675 43 35
3.9952121 0.031269278 -0.075331397 25 47
3.9518435 0.14720817 -0.30082244 44 21
3.9656582 0.14702408 -0.24670887 50 25
3.8504839 -0.083631404 -0.38688549 47 14
3.978699 0.14750226 -0.19226855 48 30
3.8704953 -0.084761396 -0.33421132 29 18
3.9960041 0.14743845 -0.13768545 53 38
3.8797083 -0.08564955 -0.28166276 46 22
4.0512586 0.26820192 -0.090614766 31 45
3.893245 -0.085961469 -0.22854628 29 26
3.9081376 0.14286585 -0.48604572 44 9
4.0721316 0.26886722 -0.034593444 42 53
3.8960438 -0.086706296 -0.1746546 28 32
3.9271162 0.14355183 -0.4085499 44 13
4.0822449 0.26881802 0.021939553 39 61
3.9424152 0.14341579 -0.35505119 48 17
3.9326057 0.25829455 -0.52449858 42 8
3.9466558 0.025410976 -0.18373975 48 31
3.9588342 0.025481122 -0.12944996 49 39
4.0127039 0.14313905 -0.082656898 25 46
3.87835 0.024340628 -0.46157715 53 10
4.0334568 0.14387102 -0.027227487 46 54
4.0484371 0.14439937 0.028730491 38 62
4.0175934 0.2610482 -0.20142297 42 29
4.0300093 0.26185331 -0.14536154 65 37
3.9703224 0.37476784 -0.42860827 34 12
3.9858737 0.37553605 -0.37432975 39 16
4.0006819 0.37622875 -0.31970024 42 20
4.0196404 0.37801421 -0.26506054 42 24
4.0429535 0.37878606 -0.21021205 44 28
4.0654497 0.3801809 -0.15476485 50 36
4.0722518 0.38010097 -0.098365523 41 44
4.0881667 0.38158855 -0.041200105 42 52
4.0806265 0.5138824 -0.16302675 36 35
3.9852989 0.017286548 -0.075141169 28 47
3.9523332 0.13341276 -0.30082244 42 21
3.9661472 0.13318045 -0.24670887 42 25
3.8501685 -0.097071588 -0.38688549 49 14
3.9741983 0.13344753 -0.19202518 45 30
3.8651967 -0.098140173 -0.33377728 46 18
3.9915001 0.13332407 -0.13751182 49 38
3.8744009 -0.099059455 -0.28129742 47 22
4.0471807 0.2537466 -0.090502203 28 45
3.8879318 -0.099418506 -0.22825062 33 26
3.9036539 0.12906113 -0.48542339 32 9
4.0680552 0.25433984 -0.034550682 41 53
3.9226232 0.12968047 -0.40802813 45 13
4.0781679 0.25425622 0.0219125 38 61
3.9379146 0.1294917 -0.35459888 29 17
3.9235911 0.24395195 -0.52316737 37 8
3.9417257 0.011623089 -0.18350509 50 31
3.958899 0.011662057 -0.12944996 53 39
4.0081825 0.12897246 -0.082553059 40 46
3.8784113 0.01080251 -0.46157715 43 10
4.0289369 0.12963194 -0.027193453 43 54
4.0389223 0.12994924 0.028658934 42 62
4.0134954 0.24671686 -0.20117089 28 29
4.0259113 0.24747843 -0.14518006 65 37
4.0308027 0.60689265 -0.28180912 83 23
3.9617054 0.3600055 -0.42752999 32 12
3.9822032 0.36117014 -0.37386009 14 16
4.0019708 0.36226147 -0.31970024 30 20
4.0159669 0.36353034 -0.26473007 41 24
4.034306 0.36377311 -0.20969044 41 28
4.0617766 0.3655391 -0.15457378 43 36
4.0685759 0.36543605 -0.098244235 14 44
4.0944543 0.36776385 -0.041250721 43 52
4.0774364 0.49902636 -0.16282696 35 35
3.9903343 0.0033760273 -0.075236283 37 47
3.9477918 0.11946698 -0.30043972 37 21
3.9616001 0.11918717 -0.2463958 42 25
3.8448341 -0.11036302 -0.38638109 52 14
3.9646564 0.11927787 -0.19153842 43 30
3.8598516 -0.11148298 -0.33334324 47 18
3.9869463 0.11924296 -0.13733819 41 38
3.8740313 -0.11258303 -0.28129742 50 22
4.0380616 0.23902833 -0.090277068 35 45
3.89255 -0.11313913 -0.22854628 42 26
3.8941627 0.11514489 -0.48417869 23 9
4.0639272 0.23984419 -0.034507919 39 53
3.9180815 0.11584225 -0.40750635 29 13
4.0740399 0.2397262 0.021885449 37 61
3.9333656 0.11560078 -0.3541466 40 17
3.9145246 0.22967541 -0.52183616 25 8
3.9367478 -0.0021306183 -0.18327044 50 31
3.948921 -0.0021454906 -0.12912016 46 39
3.9986145 0.11469787 -0.082345374 14 46
3.8684974 -0.0027224147 -0.46038446 50 10
4.0243669 0.1154262 -0.027159419 41 54
4.039351 0.11584998 0.028658934 40 62
4.0093465 0.23241732 -0.20091878 39 29
4.0267506 0.23342386 -0.14518006 39 37
4.0328965 0.5928188 -0.28180912 99 23
3.9629383 0.34617439 -0.42752999 30 12
4.071075 0.59773058 -0.22731955 97 27
3.9784803 0.34683451 -0.37339041 14 16
3.998246 0.34785718 -0.31930012 14 20
4.0172119 0.34950978 -0.26473007 40 24
4.0355511 0.3496885 -0.20969044 13 28
4.0580502 0.3509275 -0.15438272 39 36
4.064847 0.35080141 -0.098122954 13 44
4.0857506 0.3526082 -0.041149493 37 52
4.0741925 0.48419881 -0.16262718 42 35
4.0810165 0.48501256 -0.10596064 12 43
3.9432011 0.10555451 -0.30005696 33 21
3.9570034 0.10522724 -0.24608271 30 25
3.8344817 -0.12345346 -0.38537225 35 14
3.9550636 0.10517645 -0.19105168 31 30
3.8544602 -0.12478967 -0.3329092 41 18
3.9823427 0.10519525 -0.13716456 43 38
3.863647 -0.12577109 -0.28056678 48 22
4.0288892 0.22437683 -0.090051942 14 45
3.8821542 -0.12639152 -0.22795497 42 26
3.8945408 0.10155103 -0.48417869 36 9
4.0597472 0.22538051 -0.034465156 38 53
3.9134905 0.10203733 -0.40698457 29 13
4.074852 0.2255037 0.021885449 24 61
3.9237893 0.10161632 -0.35324201 34 17
3.9153025 0.21600978 -0.52183616 25 8
3.9317219 -0.015848884 -0.18303578 45 31
3.9388952 -0.015882688 -0.12879035 42 39
3.9989905 0.10073939 -0.082345374 14 46
3.8634999 -0.016201712 -0.45978811 23 10
4.0147491 0.10113002 -0.02709135 42 54
4.0001612 0.21787882 -0.2004146 14 29
4.0175624 0.21882428 -0.14481711 38 37
4.0349412 0.5787378 -0.28180912 97 23
3.9641225 0.33233905 -0.42752999 27 12
4.0731368 0.5835163 -0.22731955 96 27
3.9796672 0.3329449 -0.37339041 20 16
3.9994361 0.33389854 -0.31930012 17 20
4.0134354 0.33506921 -0.26439956 23 24
4.0317712 0.33518529 -0.20942962 14 28
4.0492916 0.33593261 -0.15400057 45 36
4.0660462 0.33661032 -0.098122954 14 44
4.055922 0.57742667 -0.34027901 37 19
4.0869565 0.33834413 -0.041149493 39 52
4.0960779 0.35134023 0.014935621 20 60
4.0758576 0.46997428 -0.16262718 36 35
4.0826845 0.47076422 -0.10596064 55 43
3.9335773 0.091561578 -0.29929152 28 21
3.9573467 0.091414079 -0.24608271 20 25
3.8240852 -0.13647299 -0.38436344 30 14
3.9504139 0.09125676 -0.19080828 14 30
3.8390684 -0.13769332 -0.33160707 20 18
3.9776905 0.091181144 -0.13699095 38 38
3.8532178 -0.13888805 -0.27983615 48 22
4.0296478 0.21031201 -0.090051942 17 45
3.8816895 -0.13994201 -0.22795497 40 26
3.8899119 0.087845966 -0.48355639 25 9
4.0505233 0.21068986 -0.034379639 33 53
3.9088519 0.088265859 -0.40646282 28 13
4.0656271 0.21076204 0.021831343 14 61
3.9191418 0.087809622 -0.3527897 20 17
3.9160328 0.2023415 -0.52183616 30 8
3.9266484 -0.029532088 -0.18280111 38 31
3.9438126 -0.029672889 -0.12895525 41 39
3.9893224 0.086566828 -0.082137696 17 46
3.8584554 -0.029646156 -0.45919174 23 10
4.0150771 0.087115318 -0.02709135 41 54
3.9909232 0.2034073 -0.19991042 17 29
4.0133109 0.20454536 -0.14463563 28 37
3.9513359 0.3173795 -0.57652265 58 7
4.0270586 0.56326139 -0.28111333 46 23
3.9603031 0.31810099 -0.42699087 45 12
4.060317 0.567213 -0.22648482 44 27
3.965919 0.31785616 -0.37198135 25 16
3.9906409 0.3191399 -0.31849986 25 20
4.0046344 0.32026088 -0.26373857 29 24
4.0279388 0.32071277 -0.20916881 20 28
4.0454593 0.32139957 -0.15380952 30 36
4.0622139 0.32201943 -0.098001659 17 44
4.0431089 0.56120056 -0.33902648 98 19
4.0831289 0.32368016 -0.041098878 32 52
4.1022625 0.33745065 0.014953948 44 60
4.0725088 0.45518717 -0.1624274 37 35
4.074369 0.45539582 -0.10570063 46 43
3.9338732 0.077830277 -0.29929152 24 21
3.9476631 0.077408209 -0.24545655 17 25
3.8235857 -0.1498207 -0.38436344 28 14
3.9507084 0.077466689 -0.19080828 17 30
3.8385642 -0.15109333 -0.33160707 20 18
3.9679921 0.077105746 -0.13664369 37 38
3.8477271 -0.15213557 -0.2794708 45 22
4.0253644 0.19600219 -0.089939371 17 45
3.8852344 0.074174456 -0.48293403 25 9
4.0462399 0.19630799 -0.034336876 20 53
3.9041641 0.074528016 -0.40594101 28 13
4.0613441 0.1963283 0.02180429 14 61
3.9194243 0.074128732 -0.3527897 23 17
3.9167151 0.18867075 -0.52183616 45 8
3.9215271 -0.043180067 -0.18256645 20 31
3.9286945 -0.043263882 -0.12846053 39 39
3.9895999 0.07264097 -0.082137696 17 46
3.8533647 -0.043055583 -0.4585954 25 10
4.0053587 0.072921544 -0.027023282 36 54
3.9866204 0.18923904 -0.1996583 20 29
4.0040188 0.19006255 -0.14427269 33 37
3.9474871 0.30320528 -0.57579648 47 7
4.0388832 0.55055469 -0.28180912 49 23
3.9613895 0.30427501 -0.42699087 50 12
4.0672183 0.55371308 -0.22676307 38 27
3.9769311 0.30477268 -0.37292072 31 16
3.9917302 0.30520806 -0.31849986 31 20
4.0007534 0.30589917 -0.26340806 38 24
4.0240555 0.30627111 -0.20890802 20 28
4.0465569 0.30727634 -0.15380952 37 36
4.0483603 0.30670288 -0.097637795 17 44
4.0401058 0.54641306 -0.33860895 99 19
4.079248 0.30904701 -0.041048262 33 52
4.0884624 0.32194957 0.01489897 49 60
4.0691056 0.44042912 -0.1622276 39 35
4.0809026 0.44171065 -0.10583063 38 43
3.9241517 0.063939676 -0.29852608 26 21
3.9379301 0.063471057 -0.24483038 25 25
3.8280089 -0.16338357 -0.38486782 24 14
3.9459612 0.063597225 -0.19056492 23 30
3.8429897 -0.16470964 -0.33204111 20 18
3.9632409 0.063176781 -0.13647006 31 38
3.8521543 -0.16578497 -0.27983615 43 22
4.016037 0.18149982 -0.089714244 24 45
3.8854697 0.060612008 -0.48293403 45 9
4.0419054 0.18195857 -0.034294114 36 53
3.9044003 0.060899485 -0.40594101 38 13
4.0570102 0.18192704 0.021777241 20 61
3.9146805 0.060372196 -0.35233742 25 17
3.8975475 0.17411582 -0.51917374 51 8
3.9113648 -0.056716815 -0.18209712 20 31
3.9848309 0.058642678 -0.08203385 17 46
3.848227 -0.056429826 -0.45799905 28 10
4.0005894 0.058868229 -0.026989246 23 54
3.9922457 0.17554069 -0.19991042 28 29
4.0046577 0.17608477 -0.14427269 47 37
3.9337204 0.2883372 -0.57361817 50 7
4.0358372 0.53579342 -0.28146124 46 23
3.9624276 0.29044533 -0.42699087 53 12
4.0592294 0.53819364 -0.2262066 50 27
3.9779706 0.2908887 -0.37292072 39 16
3.9927716 0.29127243 -0.31849986 43 20
4.0017967 0.29193202 -0.26340806 45 24
4.0201201 0.29186046 -0.20864721 28 28
4.0426207 0.29278776 -0.15361844 47 36
4.0444207 0.29220879 -0.097516507 25 44
4.0419888 0.53230721 -0.33860895 43 19
4.0803018 0.29480594 -0.041048262 43 52
4.0895615 0.30767623 0.01489897 45 60
4.0656495 0.42570034 -0.16202781 47 35
4.0724778 0.42641804 -0.10557061 46 43
3.924351 0.050241437 -0.29852608 35 21
3.9381278 0.049724728 -0.24483038 30 25
3.8174772 -0.17627616 -0.38385901 23 14
3.9411654 0.049761843 -0.19032153 29 30
3.8324401 -0.17765215 -0.33117303 20 18
3.9634371 0.049342107 -0.13647006 44 38
3.8316281 -0.17828391 -0.27837485 37 22
4.0166459 0.16748013 -0.089714244 20 45
