# .PCD v0.7 - Point Cloud Data file format
VERSION 0.7
FIELDS x y z intensity ring
SIZE 4 4 4 4 2
TYPE F F F F U
COUNT 1 1 1 1 1
WIDTH 1261
HEIGHT 1
VIEWPOINT 0 0 0 1 0 0 0
POINTS 1261
DATA ascii
3.5426431 1.4554052 -0.29125428 30 21
3.560168 1.4618703 -0.2391949 20 25
3.5954671 1.2349648 -0.38184136 50 14
3.5813963 1.4705766 -0.18691425 43 30
3.6192851 1.2424136 -0.33030495 55 18
3.6281884 1.2447526 -0.27837485 46 22
3.6456835 1.2507358 -0.22618099 43 26
3.6674438 1.2574624 -0.17375083 45 32
3.5025516 1.4360975 -0.39341843 20 13
3.6790633 1.2607164 -0.12041652 36 40
3.5213726 1.4430875 -0.34238693 36 17
3.7134147 1.2724508 -0.067211576 54 48
3.733093 1.2784451 -0.012966576 34 56
3.7470984 1.2832266 0.041786753 42 64
3.6343296 1.3638508 -0.18068916 45 31
3.7419009 1.2799935 0.096458092 9 70
3.6503808 1.3698617 -0.1274711 20 39
3.5430624 1.3289677 -0.45024645 31 10
3.6779833 1.3714194 -0.073999785 49 47
3.5523207 1.4449066 -0.291637 25 21
3.5698726 1.4513115 -0.23950797 20 25
3.599756 1.2224069 -0.38184136 40 14
3.5818808 1.4561875 -0.18667085 45 30
3.6188815 1.2281765 -0.32987091 44 18
3.6325111 1.2320803 -0.27837485 43 22
3.650027 1.2380024 -0.22618099 43 26
3.6718106 1.244653 -0.17375083 39 32
3.5167596 1.4275997 -0.39446199 42 13
3.6834414 1.2478665 -0.12041652 20 40
3.5356183 1.4345272 -0.34329152 30 17
3.7130973 1.2578814 -0.067125186 41 48
3.7422705 1.2670054 -0.012983157 35 56
3.7468178 1.26854 0.041733522 31 64
3.6390684 1.3511562 -0.18068916 36 31
3.7747657 1.2765048 0.097196296 32 70
3.6598265 1.3588474 -0.12763602 23 39
3.5523357 1.318316 -0.4508428 30 10
3.6827478 1.3585725 -0.073999785 41 47
3.5527174 1.4306377 -0.29125428 25 21
3.7115145 1.3691622 -0.019841367 76 55
3.5749168 1.4388413 -0.23950797 30 25
3.604001 1.209834 -0.38184136 17 14
3.5915756 1.4455382 -0.18691425 45 30
3.6231468 1.2155366 -0.32987091 53 18
3.6367898 1.2193931 -0.27837485 41 22
3.6495926 1.2236719 -0.22588533 34 26
3.6713955 1.2302459 -0.17352489 37 32
3.5217216 1.415315 -0.39446199 23 13
3.6877751 1.2350012 -0.12041652 20 40
3.5406041 1.4221767 -0.34329152 29 17
3.7174656 1.2449125 -0.067125186 34 48
3.7371845 1.25077 -0.012949995 20 56
3.7512231 1.2554535 0.041733522 23 64
3.6390731 1.3367265 -0.18045451 41 31
3.764972 1.25858 0.096827202 44 70
3.6645472 1.3460639 -0.12763602 23 39
3.5522542 1.3042004 -0.45024645 26 10
3.6874678 1.3457091 -0.073999785 31 47
3.5576897 1.4182277 -0.29125428 29 21
3.7162712 1.3561983 -0.019841367 78 55
3.5845544 1.4281991 -0.23982106 25 25
3.6082022 1.1972463 -0.38184136 23 14
3.6012402 1.4348391 -0.18715763 46 30
3.6273677 1.2028821 -0.32987091 31 18
3.6267865 1.444272 -0.13438655 58 38
3.6410241 1.2066908 -0.27837485 30 22
3.6538417 1.2109249 -0.22588533 17 26
3.4816194 1.3851246 -0.46550858 51 9
3.6756675 1.2174228 -0.17352489 34 32
3.5266404 1.4030133 -0.39446199 25 13
3.6873174 1.2205552 -0.12026034 23 40
3.545547 1.4098091 -0.34329152 30 17
3.7217884 1.2319287 -0.067125186 29 48
3.7415276 1.2377172 -0.012949995 22 56
3.7555823 1.2423517 0.041733522 20 64
3.6437171 1.3240156 -0.18045451 31 31
3.7503521 1.2391753 0.096335068 31 70
3.6692238 1.3332641 -0.12763602 23 39
3.5614526 1.2934841 -0.4508428 25 10
3.6874397 1.3311352 -0.073904671 39 47
3.5672567 1.4076283 -0.291637 36 21
3.7162786 1.3415235 -0.01981606 59 55
3.5895181 1.4156779 -0.23982106 29 25
3.6076312 1.1830986 -0.38133696 25 14
3.6062269 1.4222597 -0.18715763 46 30
3.6315444 1.190213 -0.32987091 28 18
3.6318059 1.4316034 -0.13438655 59 38
3.6452141 1.1939739 -0.27837485 20 22
3.6580465 1.1981633 -0.22588533 17 26
3.4818158 1.371147 -0.46488625 52 9
3.6798947 1.204585 -0.17352489 40 32
3.5315163 1.3906945 -0.39446199 29 13
3.6915555 1.2076765 -0.12026034 23 40
3.5458126 1.3956026 -0.34283924 45 17
3.7260661 1.2189298 -0.067125186 31 48
3.7458253 1.2246493 -0.012949995 25 56
3.7598963 1.2292347 0.041733522 25 64
3.6483166 1.3112886 -0.18045451 40 31
3.6691515 1.3187609 -0.1274711 28 39
3.5659461 1.2810445 -0.4508428 26 10
3.6967728 1.3199332 -0.073999785 47 47
3.5721486 1.3951677 -0.291637 43 21
3.7209389 1.3285431 -0.01981606 51 55
3.5897882 1.4013269 -0.23950797 34 25
3.621206 1.1735563 -0.38234577 25 14
3.6111693 1.409663 -0.18715763 46 30
3.6404169 1.1790593 -0.33030495 28 18
3.6367812 1.4189172 -0.13438655 55 38
3.6493597 1.1812426 -0.27837485 25 22
3.6574562 1.1838546 -0.22558966 23 26
3.5050738 1.3661838 -0.46737558 52 9
3.684077 1.1917324 -0.17352489 33 32
3.5363493 1.3783587 -0.39446199 46 13
3.7005053 1.196316 -0.12041652 23 40
3.5553026 1.3850224 -0.34329152 43 17
3.730298 1.2059158 -0.067125186 33 48
3.7500772 1.2115664 -0.012949995 28 56
3.7736821 1.2191678 0.041839983 25 64
3.6528716 1.2985457 -0.18045451 47 31
3.6643128 1.3026041 -0.1271413 39 39
3.6585493 1.422253 -0.08078777 13 46
3.5657165 1.2669303 -0.45024645 29 10
3.6966429 1.3053596 -0.073904671 52 47
3.5769968 1.3826901 -0.291637 57 21
3.7255538 1.3155464 -0.01981606 44 55
3.5946579 1.3887876 -0.23950797 46 25
3.6252809 1.1609088 -0.38234577 28 14
3.735116 1.3181827 0.034936666 45 63
3.6114085 1.3952512 -0.18691425 44 30
3.639765 1.1648312 -0.32987091 31 18
3.6417117 1.4062139 -0.13438655 41 38
3.6487095 1.1669822 -0.27800953 30 22
3.666322 1.1725963 -0.22588533 28 26
3.5098209 1.3539405 -0.46737558 51 9
3.6882143 1.1788653 -0.17352489 43 32
3.5411389 1.3660061 -0.39446199 39 13
3.7046587 1.1833916 -0.12041652 28 40
3.5601158 1.3726037 -0.34329152 47 17
3.7344849 1.1928873 -0.067125186 44 48
3.7542837 1.1984688 -0.012949995 38 56
3.7636218 1.20144 0.041680291 29 64
3.657382 1.2857869 -0.18045451 46 31
3.6688375 1.2898052 -0.1271413 63 39
3.6634915 1.4094737 -0.08078777 43 46
3.5701172 1.2544761 -0.45024645 32 10
3.5709188 1.495062 -0.19360806 53 29
3.4786496 1.5759333 -0.3036952 12 20
3.7011769 1.292448 -0.073904671 53 47
3.5818017 1.3701956 -0.291637 52 21
3.730123 1.3025339 -0.01981606 42 55
3.6041458 1.3780116 -0.23982106 48 25
3.6245666 1.1467512 -0.38184136 28 14
3.7396944 1.3051367 0.034936666 29 63
3.6209226 1.384418 -0.18715763 46 30
3.6438091 1.1521189 -0.32987091 38 18
3.6465983 1.3934934 -0.13438655 35 38
3.6575174 1.1557366 -0.27837485 34 22
3.6751533 1.1612904 -0.22618099 31 26
3.5145259 1.3416806 -0.46737558 51 9
3.692307 1.1659839 -0.17352489 50 32
3.5458858 1.353637 -0.39446199 50 13
3.7087669 1.1704526 -0.12041652 29 40
3.5648854 1.3601681 -0.34329152 51 17
3.738626 1.1798443 -0.067125186 50 48
3.7632141 1.1868559 -0.012966576 39 56
3.7821016 1.192793 0.041839983 38 64
3.6618481 1.2730123 -0.18045451 53 31
3.6780386 1.2786282 -0.12730619 45 39
3.6683893 1.3966771 -0.08078777 34 46
3.5744746 1.2420063 -0.45024645 40 10
3.5715024 1.4806762 -0.19335596 32 29
3.4886761 1.5658224 -0.30409536 56 20
3.7056656 1.2795206 -0.073904671 43 47
3.5865626 1.3576845 -0.291637 44 21
3.7299194 1.2878766 -0.019790752 38 55
3.6042659 1.3636584 -0.23950797 41 25
3.6285474 1.134092 -0.38184136 30 14
3.7394998 1.290447 0.03489216 23 63
3.6210611 1.3700049 -0.18691425 46 30
3.6430521 1.1379122 -0.32943687 52 18
3.6514404 1.3807558 -0.13438655 20 38
3.6567676 1.1414812 -0.27800953 42 22
3.6744189 1.1469722 -0.22588533 34 26
3.5191879 1.3294044 -0.46737558 49 9
3.6963546 1.1530882 -0.17352489 53 32
3.5505891 1.3412511 -0.39446199 37 13
3.7128301 1.1574994 -0.12041652 44 40
3.5696115 1.3477161 -0.34329152 40 17
3.7427218 1.1667868 -0.067125186 53 48
3.7625589 1.1722299 -0.012949995 48 56
3.6615448 1.2586021 -0.18021984 53 31
3.6777525 1.2641608 -0.1271413 38 39
3.6685636 1.3821031 -0.080683932 45 46
3.578788 1.2295215 -0.45024645 56 10
3.5858891 1.4719917 -0.19386016 54 29
3.489567 1.5516096 -0.3036952 41 20
3.7101097 1.2665776 -0.073904671 43 47
3.5866106 1.34341 -0.29125428 43 21
3.7343926 1.2748489 -0.019790752 42 55
3.609004 1.3510689 -0.23950797 25 25
3.632484 1.1214192 -0.38184136 33 14
3.7439814 1.2773858 0.03489216 32 63
3.6258214 1.3573567 -0.18691425 43 30
3.6517632 1.1266524 -0.32987091 53 18
3.6562376 1.3680015 -0.13438655 20 38
3.6607299 1.1287098 -0.27800953 50 22
3.6784 1.1341391 -0.22588533 42 26
3.5470464 1.3257872 -0.4704873 37 9
3.700357 1.1401786 -0.17352489 54 32
3.5552495 1.3288493 -0.39446199 39 13
3.7168477 1.1445322 -0.12041652 36 40
3.569629 1.3335071 -0.34283924 39 17
3.7419922 1.1522484 -0.067038789 53 48
3.766628 1.1590891 -0.012949995 45 56
3.6659157 1.2458131 -0.18021984 49 31
3.6774099 1.2497104 -0.12697639 20 39
3.6733656 1.369289 -0.080683932 40 46
3.5877602 1.2186151 -0.4508428 52 10
3.697495 1.3782722 -0.026614867 23 54
3.5863788 1.4575861 -0.19360806 38 29
3.6163349 1.4697561 -0.1404617 32 37
3.4995224 1.5414288 -0.30409536 45 20
3.7097702 1.2520238 -0.073809557 42 47
3.5912781 1.3308822 -0.29125428 38 21
3.7388196 1.2618057 -0.019790752 37 55
3.6090178 1.3367317 -0.2391949 23 25
3.6363764 1.1087326 -0.38184136 52 14
3.7484176 1.2643092 0.03489216 25 63
3.6258531 1.3429593 -0.18667085 43 30
3.6509075 1.1124513 -0.32943687 46 18
3.6609907 1.3552306 -0.13438655 20 38
3.6646476 1.1159245 -0.27800953 49 22
3.6823366 1.1212921 -0.22588533 43 26
3.5516527 1.3133975 -0.4704873 33 9
3.7043145 1.127255 -0.17352489 55 32
3.5598662 1.3164309 -0.39446199 20 13
3.7208204 1.131551 -0.12041652 38 40
3.5742619 1.3210386 -0.34283924 31 17
3.7459917 1.1391795 -0.067038789 54 48
3.7754364 1.1473832 -0.012966576 47 56
3.6702423 1.2330091 -0.18021984 41 31
3.6770122 1.2352782 -0.12681149 23 39
3.6734321 1.3547305 -0.080580093 25 46
3.5872846 1.2045071 -0.45024645 50 10
3.7069752 1.3670852 -0.026648903 49 54
3.5914452 1.4450583 -0.19360806 43 29
3.6168079 1.4552593 -0.14028023 59 37
3.5048816 1.5292039 -0.30409536 51 20
3.5084345 1.5307547 -0.25117958 41 24
3.7141182 1.2390667 -0.073809557 38 47
3.595902 1.3183383 -0.29125428 28 21
3.7384577 1.2471681 -0.019765444 25 55
3.6183481 1.3258406 -0.23950797 20 25
3.6354599 1.0946031 -0.38133696 44 14
3.748064 1.2496388 0.034847654 20 63
3.6305189 1.3302945 -0.18667085 35 30
3.6547682 1.0997005 -0.32943687 44 18
3.6656988 1.342443 -0.13438655 25 38
3.6685202 1.1031256 -0.27800953 48 22
3.686228 1.1084315 -0.22588533 40 26
3.5562158 1.300992 -0.4704873 24 9
3.7082267 1.1143177 -0.17352489 43 32
3.5644398 1.3039967 -0.39446199 20 13
3.7151718 1.1156906 -0.12010416 17 40
3.5788517 1.3085542 -0.34283924 25 17
3.7499454 1.1260966 -0.067038789 36 48
3.7746279 1.1327651 -0.012949995 43 56
3.6697829 1.2186195 -0.17998517 39 31
3.6813014 1.2224356 -0.12681149 25 39
3.6828353 1.3436108 -0.080683932 25 46
3.5961802 1.1935382 -0.4508428 48 10
3.7070267 1.3524253 -0.026614867 54 54
3.6011069 1.4343603 -0.19386016 42 29
3.6265078 1.4444736 -0.1404617 61 37
3.4874225 1.5078361 -0.35507312 58 16
3.5147731 1.5189381 -0.30449545 50 20
3.5320745 1.5264179 -0.25250158 58 24
3.7184207 1.2260944 -0.073809557 30 47
3.6004817 1.305778 -0.29125428 27 21
3.7427881 1.2341107 -0.019765444 24 55
3.6229541 1.3132023 -0.23950797 20 25
3.6392586 1.0819064 -0.38133696 32 14
3.7524033 1.2365481 0.034847654 20 63
3.6351404 1.3176136 -0.18667085 39 30
3.6585848 1.0869364 -0.32943687 50 18
3.6703627 1.3296392 -0.13438655 25 38
3.6723485 1.0903134 -0.27800953 47 22
3.6805024 1.0927256 -0.22529401 23 26
3.5560691 1.2868843 -0.46986493 29 9
3.7120938 1.1013666 -0.17352489 36 32
3.5689697 1.2915466 -0.39446199 26 13
3.7190437 1.1027154 -0.12010416 20 40
3.5833972 1.2960535 -0.34283924 28 17
3.749059 1.1115835 -0.066952407 43 48
3.6740146 1.2058021 -0.17998517 33 31
3.6807971 1.208023 -0.12664658 28 39
3.6780975 1.3273573 -0.080476254 33 46
3.6003246 1.1809779 -0.4508428 30 10
3.7117252 1.3394772 -0.026614867 46 54
3.6107373 1.4236122 -0.19411226 43 29
3.6268792 1.429974 -0.14028023 41 37
3.4926646 1.4956535 -0.35507312 43 16
3.5154722 1.5046982 -0.30409536 54 20
3.523622 1.5081878 -0.25151005 54 24
3.7226779 1.2131075 -0.073809557 30 47
3.6050179 1.2932023 -0.29125428 32 21
3.7470732 1.2210387 -0.019765444 29 55
3.6322141 1.3022299 -0.23982106 38 25
3.643013 1.0691963 -0.38133696 20 14
3.7566967 1.2234423 0.034847654 23 63
3.6444194 1.3066 -0.18691425 45 30
3.6623566 1.0741588 -0.32943687 31 18
3.6561623 1.3100846 -0.13369204 28 38
3.6761322 1.0774879 -0.27800953 40 22
3.6641564 1.4350684 -0.087800637 11 45
3.6890855 1.0812708 -0.22558966 17 26
3.5605397 1.2744635 -0.46986493 32 9
3.7111206 1.0870029 -0.17329894 35 32
3.5734563 1.2790807 -0.39446199 28 13
3.7276678 1.0911261 -0.12026034 20 40
3.5925887 1.2852125 -0.34329152 30 17
3.7577155 1.0998899 -0.067038789 30 48
3.5319598 1.381182 -0.50453037 12 8
3.678201 1.19297 -0.17998517 38 31
3.6849911 1.1951672 -0.12664658 25 39
3.6921258 1.3178673 -0.080683932 46 46
3.604425 1.1684033 -0.4508428 26 10
3.7163782 1.3265128 -0.026614867 43 54
3.7304981 1.3315462 0.02808647 37 62
3.6156845 1.4109999 -0.19411226 42 29
3.6318486 1.4173051 -0.14028023 40 37
3.5024464 1.4853969 -0.35554281 50 16
3.5252914 1.4943634 -0.30449545 54 20
3.5380511 1.4997743 -0.25217107 43 24
3.7268896 1.2001053 -0.073809557 36 47
3.6142089 1.2822753 -0.291637 39 21
3.7513125 1.2079513 -0.019765444 32 55
3.6320336 1.2878773 -0.23950797 29 25
3.646723 1.0564734 -0.38133696 25 14
3.7561841 1.208793 0.034803148 28 63
3.6489582 1.2938707 -0.18691425 45 30
3.661298 1.0599877 -0.32900283 31 18
3.6701343 1.3006486 -0.1340393 31 38
3.6750796 1.0632681 -0.27764422 23 22
3.6551604 1.4168513 -0.087462947 45 45
3.6928375 1.0683869 -0.22558966 20 26
3.5649667 1.2620271 -0.46986493 37 9
3.7148926 1.0740421 -0.17329894 36 32
3.5778995 1.2665992 -0.39446199 29 13
3.7314539 1.0781074 -0.12026034 25 40
3.5923581 1.2710053 -0.34283924 38 17
3.7663362 1.0881493 -0.067125186 23 48
3.5321376 1.3670565 -0.50386477 56 8
3.6775856 1.1786026 -0.17975052 56 31
3.6986604 1.1853405 -0.12697639 29 39
3.6919889 1.3033093 -0.080580093 51 46
3.6084814 1.1558145 -0.4508428 24 10
3.7209859 1.3135321 -0.026614867 41 54
3.7304077 1.3168538 0.028050691 47 62
3.6159296 1.3965716 -0.19386016 41 29
3.6367738 1.4046189 -0.14028023 40 37
3.5076101 1.4731621 -0.35554281 51 16
3.5304863 1.4820487 -0.30449545 52 20
3.5478652 1.4893469 -0.25250158 33 24
3.5651059 1.4951236 -0.2000405 43 28
3.7310562 1.1870887 -0.073809557 49 47
3.6186633 1.2696515 -0.291637 43 21
3.7555063 1.1948494 -0.019765444 44 55
3.641217 1.2768407 -0.23982106 42 25
3.6551726 1.0451002 -0.38184136 22 14
3.7603805 1.1956741 0.034803148 30 63
3.6534526 1.2811254 -0.18691425 47 30
3.6697662 1.0485647 -0.32943687 20 18
3.6699357 1.2861788 -0.13386568 32 38
3.6835647 1.0517976 -0.27800953 25 22
3.6694186 1.4076633 -0.087688081 31 45
3.6965439 1.0554899 -0.22558966 23 26
3.5693502 1.2495754 -0.46986493 56 9
3.7186189 1.0610681 -0.17329894 36 32
3.582299 1.2541023 -0.39446199 31 13
3.7351944 1.0650756 -0.12026034 25 40
3.5967729 1.2584579 -0.34283924 44 17
3.7604938 1.0722632 -0.066952407 25 48
3.5368884 1.3547188 -0.50386477 43 8
3.6864398 1.1672624 -0.17998517 50 31
3.6980104 1.1709174 -0.12681149 31 39
3.7012362 1.2920594 -0.080683932 52 46
3.612494 1.1432114 -0.4508428 28 10
3.7255485 1.3005353 -0.026614867 39 54
3.7349818 1.3038241 0.028050691 48 62
3.6207826 1.3839412 -0.19386016 41 29
3.7250376 1.2996281 0.082567133 9 69
3.6416547 1.3919157 -0.14028023 35 37
3.4891975 1.4518324 -0.40596479 43 12
3.5173271 1.4628216 -0.35601249 49 16
3.5356383 1.4697161 -0.30449545 50 20
3.5530419 1.4769535 -0.25250158 42 24
3.5703032 1.4826701 -0.2000405 38 28
3.7351773 1.1740576 -0.073809557 52 47
3.6230729 1.2570124 -0.291637 48 21
3.7596543 1.181733 -0.019765444 54 55
3.6409361 1.2624898 -0.23950797 37 25
3.6587985 1.0323349 -0.38184136 28 14
3.648464 1.2650964 -0.18642749 44 30
3.6782 1.0370957 -0.32987091 31 18
3.6744032 1.2733605 -0.13386568 47 38
3.6872139 1.0389332 -0.27800953 31 22
3.6649625 1.3912992 -0.087462947 37 45
3.700206 1.0425801 -0.22558966 28 26
3.5736904 1.2371085 -0.46986493 61 9
3.7271097 1.0494305 -0.17352489 49 32
3.5866549 1.2415901 -0.39446199 41 13
3.7388895 1.0520308 -0.12026034 29 40
3.6058502 1.2475212 -0.34329152 56 17
3.7738411 1.061829 -0.067125186 34 48
3.5415957 1.3423645 -0.50386477 35 8
3.6904919 1.1543874 -0.17998517 56 31
3.7020752 1.1580018 -0.12681149 48 39
3.7009978 1.2775028 -0.080580093 43 46
3.6164627 1.1305944 -0.4508428 32 10
3.7253387 1.2858934 -0.026580835 39 54
3.7347834 1.2891493 0.028014911 43 62
3.6255913 1.3712939 -0.19386016 41 29
3.7390039 1.289874 0.082778297 9 69
3.6464913 1.3791955 -0.14028023 20 37
3.5080316 1.4453267 -0.40758219 20 12
3.5224118 1.4505348 -0.35601249 33 16
3.5407469 1.4573654 -0.30449545 41 20
3.558176 1.464542 -0.25250158 39 24
3.580075 1.472098 -0.20030132 41 28
3.7392526 1.1610124 -0.073809557 57 47
3.6274385 1.2443579 -0.291637 47 21
3.7637563 1.1686022 -0.019765444 58 55
3.6453209 1.2497729 -0.23950797 47 25
3.6671734 1.0208865 -0.38234577 29 14
3.6575823 1.2539709 -0.18667085 44 30
3.6817975 1.0242499 -0.32987091 34 18
3.6740975 1.2589087 -0.13369204 44 38
3.6908178 1.0260561 -0.27800953 36 22
3.6604376 1.3749833 -0.08723782 42 45
3.7038226 1.0296577 -0.22558966 29 26
3.5826814 1.226231 -0.4704873 55 9
3.7259359 1.0350816 -0.17329894 51 32
3.5956724 1.230671 -0.39498374 50 13
3.7425392 1.0389733 -0.12026034 31 40
3.610183 1.2349269 -0.34329152 52 17
3.5462596 1.3299938 -0.50386477 28 8
3.694499 1.1414981 -0.17998517 53 31
3.7108703 1.146544 -0.12697639 43 39
3.7007029 1.2629634 -0.080476254 40 46
3.6203868 1.1179638 -0.4508428 42 10
3.7298043 1.2728817 -0.026580835 38 54
3.7392604 1.2761046 0.028014911 32 62
3.6303558 1.3586298 -0.19386016 39 29
3.7576797 1.2816499 0.083095059 12 69
3.6559629 1.368209 -0.1404617 20 37
3.4992483 1.427438 -0.40596479 20 12
3.5274537 1.4382305 -0.35601249 17 16
3.5411973 1.4431155 -0.30409536 43 20
3.5586467 1.4502293 -0.25217107 17 24
3.5851917 1.4595922 -0.20030132 43 28
3.738502 1.1464905 -0.073714443 47 47
3.6270382 1.2300889 -0.29125428 44 21
3.75825 1.1525317 -0.019714829 51 55
3.6496613 1.2370408 -0.23950797 31 25
3.6659164 1.0067668 -0.38184136 31 14
3.657207 1.2395948 -0.18642749 43 30
3.6853502 1.0113919 -0.32987091 42 18
3.6784694 1.2460761 -0.13369204 30 38
3.6943772 1.0131664 -0.27800953 41 22
3.6699007 1.3639383 -0.087350383 23 45
3.7122092 1.0180382 -0.22588533 31 26
3.5822401 1.2121294 -0.46986493 49 9
3.689676 1.3705521 -0.033353381 51 53
3.734345 1.0233849 -0.17352489 53 32
3.5999463 1.2181123 -0.39498374 50 13
3.7557857 1.0285337 -0.1205727 33 40
3.6144714 1.2223175 -0.34329152 49 17
3.5508807 1.317607 -0.50386477 25 8
3.6984611 1.1285949 -0.17998517 53 31
3.7148499 1.1335835 -0.12697639 46 39
3.7050889 1.2500379 -0.080476254 39 46
3.6242673 1.1053195 -0.4508428 61 10
3.7389631 1.261451 -0.026614867 37 54
3.7436922 1.2630444 0.028014911 20 62
3.6350763 1.3459493 -0.19386016 39 29
3.7431803 1.2621444 0.082672715 40 69
3.6607168 1.3554391 -0.1404617 25 37
3.5180364 1.420801 -0.40758219 20 12
3.5370684 1.4277724 -0.35648215 20 16
3.5508349 1.4326111 -0.30449545 29 20
3.5636873 1.4377985 -0.25217107 17 24
3.590265 1.4470687 -0.20030132 35 28
3.6159356 1.4566858 -0.14769535 52 36
3.7424815 1.1334337 -0.073714443 43 47
3.63131 1.2174207 -0.29125428 41 21
3.7718229 1.142298 -0.019765444 45 55
3.649225 1.2227101 -0.2391949 23 25
3.6694081 0.9939642 -0.38184136 34 14
3.6615117 1.2268212 -0.18642749 36 30
3.6840489 0.99722457 -0.32943687 53 18
3.6827967 1.2332283 -0.13369204 20 38
3.6978912 1.0002644 -0.27800953 51 22
3.6699476 1.3493954 -0.08723782 34 45
3.7157402 1.0050738 -0.22588533 34 26
3.5911548 1.2011893 -0.4704873 49 9
3.699131 1.3593884 -0.03339614 54 53
3.7330711 1.0090446 -0.17329894 54 32
3.6041763 1.2055386 -0.39498374 36 13
3.7497013 1.0128202 -0.12026034 47 40
3.6187165 1.2096931 -0.34329152 36 17
3.550806 1.303497 -0.50319916 25 8
3.702378 1.1156781 -0.17998517 53 31
3.7139988 1.119171 -0.12681149 39 39
3.7046871 1.2355176 -0.080372408 34 46
3.6281037 1.0926616 -0.4508428 56 10
3.7386 1.246812 -0.026580835 23 54
3.7433348 1.2483889 0.027979132 21 62
3.6350632 1.3315355 -0.19360806 28 29
3.7333343 1.2443343 0.082355961 47 69
3.6607339 1.3409346 -0.14028023 23 37
3.5229743 1.4085121 -0.40758219 23 12
3.5420306 1.4154171 -0.35648215 25 16
3.555814 1.4202076 -0.30449545 31 20
3.5686843 1.4253502 -0.25217107 20 24
3.595294 1.4345275 -0.20030132 42 28
3.6163576 1.4422034 -0.14750427 47 36
3.7464151 1.120363 -0.073714443 40 47
3.6402705 1.2063038 -0.291637 36 21
3.7662048 1.1262664 -0.019714829 42 55
3.653471 1.2099645 -0.2391949 33 25
3.6728554 0.98114949 -0.38184136 43 14
3.6610303 1.2124646 -0.18618411 34 30
3.6875072 0.98435885 -0.32943687 52 18
3.6823347 1.2187972 -0.13351843 25 38
3.7013605 0.98735034 -0.27800953 48 22
3.6746354 1.3365767 -0.08723782 31 45
3.7144022 0.99081564 -0.22558966 42 26
3.5953259 1.1886467 -0.4704873 45 9
3.7038536 1.3464679 -0.03339614 66 53
3.7365706 0.99600768 -0.17329894 55 32
3.6083624 1.1929505 -0.39498374 23 13
3.7628746 1.0022886 -0.1205727 43 40
3.6181881 1.1954939 -0.34283924 28 17
3.5599926 1.2927853 -0.50386477 30 8
3.70625 1.1027476 -0.17998517 44 31
3.7130919 1.1047781 -0.12664658 20 39
3.7137253 1.2241412 -0.080476254 23 46
3.627136 1.0785788 -0.45024645 55 10
3.7429292 1.2337543 -0.026580835 25 54
3.7476692 1.2353146 0.027979132 20 62
3.639689 1.3188385 -0.19360806 30 29
3.7376552 1.2312951 0.082355961 43 69
3.6653924 1.328148 -0.14028023 25 37
3.5278695 1.396206 -0.40758219 28 12
3.5469496 1.4030445 -0.35648215 31 16
3.5607498 1.4077867 -0.30449545 33 20
3.5782773 1.4147193 -0.25250158 23 24
3.6049237 1.4238037 -0.20056213 37 28
3.6306639 1.4332417 -0.14788641 54 36
3.7455075 1.1058666 -0.073619321 34 47
3.644459 1.1935897 -0.291637 32 21
3.6576722 1.1972041 -0.2391949 23 25
3.6714463 0.96706057 -0.38133696 49 14
3.6652403 1.1996777 -0.18618411 40 30
3.6909208 0.97148097 -0.32943687 40 18
3.6865668 1.2059362 -0.13351843 23 38
3.7047842 0.97442412 -0.27800953 42 22
3.6745746 1.32205 -0.087125249 38 45
3.717838 0.97784388 -0.22558966 33 26
3.5994532 1.1760893 -0.4704873 29 9
3.7085311 1.3335307 -0.03339614 68 53
3.7400248 0.9829585 -0.17329894 55 32
3.6125047 1.1803476 -0.39498374 23 13
3.7229607 1.3379834 0.021209138 36 61
3.6223392 1.1828568 -0.34283924 23 17
3.5644836 1.2803507 -0.50386477 29 8
3.7052836 1.0883993 -0.17975052 49 31
3.7217214 1.0932153 -0.12681149 20 39
3.7179759 1.2111706 -0.080476254 25 46
3.6356432 1.0673064 -0.4508428 51 10
3.7472131 1.2206815 -0.026580835 29 54
3.7519586 1.2222253 0.027979132 20 62
3.6442704 1.3061256 -0.19360806 50 29
3.670006 1.3153454 -0.14028023 29 37
3.5327218 1.383883 -0.40758219 33 12
3.5471909 1.3888394 -0.35601249 35 16
3.5656421 1.3953489 -0.30449545 50 20
3.5831938 1.4022202 -0.25250158 28 24
3.6098716 1.4112115 -0.20056213 39 28
3.6309915 1.4187407 -0.14769535 50 36
3.6514323 1.4259962 -0.094241694 14 44
3.7541454 1.0941811 -0.073714443 25 47
3.6486032 1.1808608 -0.291637 27 21
3.6618288 1.1844292 -0.2391949 30 25
3.6796155 0.95548445 -0.38184136 42 14
3.6694052 1.1868764 -0.18618411 37 30
3.6942894 0.95859134 -0.32943687 49 18
3.695509 1.1945952 -0.13369204 25 38
3.708163 0.9614861 -0.27800953 49 22
3.6885865 1.3125657 -0.087350383 46 45
3.7163961 0.96361226 -0.22529401 17 26
3.6035366 1.1635177 -0.4704873 25 9
3.7131631 1.3205773 -0.03339614 54 53
3.743433 0.96989733 -0.17329894 46 32
3.6166029 1.1677305 -0.39498374 25 13
3.7276084 1.3249797 0.021209138 56 61
3.6359251 1.1732596 -0.3437438 25 17
3.5595915 1.2645841 -0.50253356 29 8
3.7090602 1.0754589 -0.17975052 32 31
3.7207139 1.0788292 -0.12664658 23 39
3.7221811 1.198185 -0.080476254 30 46
3.6393468 1.0546091 -0.4508428 45 10
3.7466912 1.2060637 -0.026546799 33 54
3.7609622 1.2106512 0.028014911 25 62
3.6535141 1.2950644 -0.19386016 43 29
3.6651554 1.2991891 -0.13991728 34 37
3.5375309 1.371543 -0.40758219 42 12
3.5566585 1.3782481 -0.35648215 47 16
3.5704911 1.3828939 -0.30449545 51 20
3.5834146 1.3879015 -0.25217107 29 24
3.6147757 1.398602 -0.20056213 43 28
3.6359217 1.4060575 -0.14769535 49 36
3.6517255 1.4114388 -0.094120406 47 44
3.7387209 1.075555 -0.073333979 23 47
3.6479537 1.1666011 -0.29125428 33 21
3.665941 1.1716398 -0.2391949 38 25
3.6781082 0.94140571 -0.38133696 35 14
3.673526 1.1740605 -0.18618411 45 30
3.6927865 0.94446051 -0.32900283 41 18
3.7044175 1.1832068 -0.13386568 30 38
3.7066643 0.94730633 -0.27764422 45 22
3.6884303 1.2980233 -0.08723782 52 45
3.7197371 0.95063376 -0.22529401 23 26
3.6028488 1.149426 -0.46986493 29 9
3.7177503 1.3076079 -0.03339614 41 53
3.741955 0.95559323 -0.17307299 50 32
3.620657 1.155099 -0.39498374 28 13
3.7322106 1.3119599 0.021209138 43 61
3.6399984 1.1605607 -0.3437438 30 17
3.5686598 1.253793 -0.50319916 30 8
3.7127917 1.0625052 -0.17975052 31 31
3.724457 1.0658348 -0.12664658 28 39
3.7263408 1.1851848 -0.080476254 40 46
3.6477797 1.0432605 -0.45143914 27 10
3.7508783 1.192978 -0.026546799 46 54
3.7556345 1.1944885 0.027943354 25 62
3.6580129 1.2823033 -0.19386016 42 29
3.6790996 1.2896919 -0.14028023 49 37
3.5422969 1.3591864 -0.40758219 52 12
3.5614476 1.3658247 -0.35648215 49 16
3.5799501 1.3722067 -0.30489561 54 20
3.5928957 1.3771709 -0.25250158 49 24
3.6149728 1.3841896 -0.20030132 49 28
3.6408076 1.3933573 -0.14769535 43 36
3.6612983 1.4004699 -0.094241694 51 44
3.5113358 1.5854412 -0.31982052 78 19
3.7568827 1.0665836 -0.073619321 28 47
3.652004 1.1538602 -0.29125428 36 21
3.6700087 1.1588362 -0.2391949 39 25
3.6765473 0.92734903 -0.38083252 25 14
3.6823652 1.1627322 -0.18642749 48 30
3.6960607 0.93156457 -0.32900283 25 18
3.7037587 1.1687669 -0.13369204 32 38
3.7147849 0.93557501 -0.27800953 27 22
3.6929388 1.2851404 -0.08723782 54 45
3.7278738 0.93885785 -0.22558966 23 26
3.6068392 1.1368426 -0.46986493 33 9
3.7270145 1.2962643 -0.033438902 56 53
3.7452681 0.94252557 -0.17307299 43 32
3.6246669 1.1424534 -0.39498374 30 13
3.7320447 1.2972831 0.021182084 40 61
3.6392772 1.1463536 -0.34329152 34 17
3.5730145 1.2413285 -0.50319916 32 8
3.7212853 1.0508927 -0.17998517 39 31
3.7329652 1.0541824 -0.12681149 31 39
3.7304552 1.1721702 -0.080476254 49 46
3.6513991 1.0305212 -0.45143914 26 10
3.7550197 1.1798778 -0.026546799 50 54
3.7645516 1.1828685 0.027979132 31 62
3.6624665 1.2695268 -0.19386016 46 29
3.6741362 1.2735701 -0.13991728 49 37
3.5470197 1.3468132 -0.40758219 42 12
3.5661933 1.3533846 -0.35648215 46 16
3.5847182 1.3597021 -0.30489561 47 20
3.6023455 1.3663911 -0.25283206 48 24
3.6244514 1.3733323 -0.20056213 48 28
3.650321 1.38241 -0.14788641 36 36
3.66149 1.3859109 -0.094120406 42 44
3.5032084 1.5670617 -0.31856796 82 19
3.631603 1.5099488 -0.15583439 17 35
3.7461386 1.0494277 -0.073333979 36 47
3.6560092 1.1411053 -0.29125428 44 21
3.674031 1.1460184 -0.2391949 42 25
3.6845908 0.91570491 -0.38133696 25 14
3.6864009 1.1498712 -0.18642749 49 30
3.7041252 0.91985303 -0.32943687 23 18
3.7030449 1.1543461 -0.13351843 42 38
3.7180281 0.9226023 -0.27800953 30 22
3.697402 1.2722418 -0.08723782 47 45
3.7311282 0.92583942 -0.22558966 25 26
3.6155231 1.1257185 -0.4704873 39 9
3.7267883 1.2816215 -0.03339614 40 53
3.7485352 0.9294464 -0.17307299 29 32
3.6286328 1.1297941 -0.39498374 33 13
3.7365503 1.2842479 0.021182084 28 61
3.6432567 1.1336432 -0.34329152 46 17
3.5773258 1.2288487 -0.50319916 36 8
3.724931 1.0378965 -0.17998517 46 31
3.7318072 1.0398073 -0.12664658 33 39
3.734524 1.1591413 -0.080476254 52 46
3.654974 1.017769 -0.45143914 30 10
3.7591155 1.1667631 -0.026546799 50 54
3.6574273 1.2534978 -0.19335596 43 29
3.6785595 1.2607372 -0.13991728 44 37
3.5061953 1.5581267 -0.26510936 89 23
3.5516992 1.3344237 -0.40758219 48 12
3.5708959 1.3409281 -0.35648215 43 16
3.5894427 1.3471807 -0.30489561 45 20
3.6070933 1.353808 -0.25283206 43 24
3.6292233 1.3606722 -0.20056213 44 28
3.6551244 1.3696597 -0.14788641 30 36
3.6616247 1.3713677 -0.093999118 42 44
3.5132113 1.5568454 -0.31898549 85 19
3.6999617 1.3857318 -0.039631061 35 52
3.6045184 1.4839363 -0.15443589 53 35
3.6599703 1.1283365 -0.29125428 48 21
3.678009 1.1331866 -0.2391949 45 25
3.6877646 0.90283775 -0.38133696 28 14
3.6903925 1.1369962 -0.18642749 44 30
3.7073135 0.90691757 -0.32943687 29 18
3.7118278 1.1428815 -0.13369204 51 38
3.721226 0.90961832 -0.27800953 33 22
3.697088 1.2577184 -0.087125249 42 45
3.7294879 0.91162932 -0.22529401 28 26
3.6146879 1.1116349 -0.46986493 57 9
3.7265053 1.2669959 -0.033353381 51 53
3.6325545 1.117121 -0.39498374 51 13
3.7410104 1.271197 0.021182084 20 61
3.6471915 1.1209189 -0.34329152 54 17
3.5815938 1.216354 -0.50319916 57 8
3.7237144 1.0235673 -0.17975052 62 31
3.7450528 1.0294169 -0.12697639 41 39
3.7337675 1.1446352 -0.080372408 45 46
3.6585042 1.0050046 -0.45143914 33 10
3.7631655 1.1536343 -0.026546799 42 54
3.6665106 1.2423254 -0.19360806 41 29
3.6782053 1.2462862 -0.1397358 30 37
3.5347979 1.3140079 -0.54820472 30 7
3.5116127 1.5458783 -0.26510936 79 23
3.5563357 1.3220178 -0.40758219 39 12
3.5708892 1.3267208 -0.35601249 30 16
3.5894513 1.3329073 -0.30449545 43 20
3.6071203 1.3394713 -0.25250158 38 24
3.6292696 1.3462584 -0.20030132 43 28
3.6645677 1.3586301 -0.14807749 20 36
3.6757631 1.3620527 -0.094241694 40 44
3.5186243 1.5445726 -0.31898549 85 19
3.7047763 1.372808 -0.039631061 56 52
3.6466815 1.4864466 -0.15603419 33 35
3.6591167 1.1141039 -0.29087156 49 21
3.6771674 1.1188904 -0.23888181 45 25
3.6957307 0.89112079 -0.38184136 30 14
3.694339 1.1241075 -0.18642749 44 30
3.7104566 0.89397115 -0.32943687 33 18
3.7110136 1.1284661 -0.13351843 50 38
3.7195294 0.8954609 -0.27764422 43 22
3.6967177 1.2432128 -0.087012686 31 45
3.7326474 0.89860547 -0.22529401 29 26
3.6185462 1.0990103 -0.46986493 58 9
3.7356451 1.2555726 -0.03339614 37 53
3.6364317 1.1044343 -0.39498374 55 13
3.745425 1.2581307 0.021182084 17 61
3.6463168 1.1067368 -0.34283924 57 17
3.5858173 1.2038444 -0.50319916 51 8
3.7320862 1.0118665 -0.17998517 57 31
3.7245033 1.0098162 -0.12615186 59 39
3.7377405 1.1315949 -0.080372408 40 46
3.6619904 0.99222791 -0.45143914 44 10
3.7671695 1.1404912 -0.026546799 40 54
3.6660891 1.2279339 -0.19335596 39 29
3.6777947 1.2318528 -0.13955434 29 37
3.5300775 1.2982448 -0.54675251 37 7
3.521558 1.5356078 -0.26545724 81 23
3.5609286 1.3095958 -0.40758219 20 12
3.5801704 1.315966 -0.35648215 14 16
3.5894043 1.3186504 -0.30409536 50 20
3.6024084 1.3234299 -0.25184056 20 24
3.6292593 1.3318608 -0.2000405 42 28
3.6645973 1.3441088 -0.14788641 17 36
3.5147417 1.5289799 -0.3716166 74 15
3.6758022 1.3474926 -0.094120406 17 44
3.5011547 1.522331 -0.3168979 43 19
3.7048514 1.3581461 -0.039580446 51 52
3.6147904 1.4587361 -0.15443589 45 35
3.6629837 1.1013244 -0.29087156 46 21
3.6810508 1.1060479 -0.23888181 25 25
3.6939781 0.87707043 -0.38133696 34 14
3.6982403 1.1112049 -0.18642749 43 30
3.7135544 0.88101375 -0.32943687 36 18
3.7149296 1.1155053 -0.13351843 40 38
3.7274857 0.88361728 -0.27800953 54 22
3.7010348 1.2303014 -0.087012686 28 45
3.7503345 0.88901013 -0.22618099 31 26
3.6223605 1.0863726 -0.46986493 58 9
3.7352598 1.2409493 -0.033353381 30 53
3.6355011 1.0903075 -0.39446199 55 13
3.7450485 1.2434741 0.021155031 20 61
3.6501575 1.0940021 -0.34283924 51 17
3.5899978 1.1913204 -0.50319916 23 8
3.7355955 0.99883294 -0.17998517 53 31
3.7521486 1.0032467 -0.12697639 45 39
3.7416675 1.1185408 -0.080372408 34 46
3.6654315 0.9794392 -0.45143914 61 10
3.7711275 1.1273344 -0.026546799 40 54
3.6703529 1.2151293 -0.19335596 39 29
3.6820724 1.2190074 -0.13955434 27 37
3.5438852 1.2892985 -0.54820472 28 7
3.526897 1.5233059 -0.26545724 82 23
3.5654783 1.2971578 -0.40758219 20 12
3.5847421 1.3034607 -0.35648215 17 16
3.5939851 1.306113 -0.30409536 24 20
3.6116946 1.3125517 -0.25217107 23 24
3.6385796 1.3208886 -0.20030132 32 28
3.6645706 1.3296041 -0.14769535 28 36
3.51092 1.5127571 -0.37064251 78 15
3.6804836 1.3346534 -0.094120406 23 44
3.5155971 1.5140483 -0.31773293 53 19
3.7095699 1.3452054 -0.039580446 48 52
3.6244988 1.4479644 -0.15463567 71 35
3.6715853 1.0899482 -0.29125428 35 21
3.6801045 1.0917746 -0.23856874 40 25
3.7018619 0.86529821 -0.38184136 38 14
3.6925197 1.0954522 -0.18594073 42 30
3.7166073 0.86804563 -0.32943687 44 18
3.7188013 1.1025311 -0.13351843 25 38
3.7305474 0.87060058 -0.27800953 55 22
3.7100558 1.2189344 -0.087125249 31 45
3.7388301 0.87252498 -0.22529401 31 26
3.6308882 1.0751282 -0.4704873 54 9
3.7395687 1.2279032 -0.033353381 29 53
3.6392848 1.0776106 -0.39446199 37 13
3.7493663 1.230394 0.021155031 17 61
3.6539543 1.081254 -0.34283924 40 17
3.5941343 1.1787816 -0.50319916 20 8
3.7342291 0.98451734 -0.17975052 53 31
3.7362955 0.98506063 -0.12631677 42 39
3.7407541 1.1040602 -0.080268569 20 46
3.6688278 0.96663845 -0.45143914 55 10
3.7750397 1.1141639 -0.026546799 39 54
3.6745722 1.2023101 -0.19335596 25 29
3.6815557 1.204594 -0.13937286 30 37
3.5437093 1.2752446 -0.54747868 28 7
3.5276082 1.5090207 -0.26510936 39 23
3.5699844 1.2847041 -0.40758219 25 12
3.5676446 1.5254434 -0.21424241 84 27
3.5845866 1.2892544 -0.35601249 25 16
3.6032124 1.2952464 -0.30449545 27 20
3.6115599 1.2982483 -0.25184056 23 24
3.6431684 1.3081795 -0.20030132 36 28
3.6691892 1.3168043 -0.14769535 28 36
3.5161793 1.5004925 -0.37064251 76 15
3.6757102 1.3184214 -0.093877822 32 44
3.516279 1.4998095 -0.31731543 45 19
3.7142429 1.3322484 -0.039580446 46 52
3.7198396 1.3467276 0.014367518 42 60
3.6295309 1.4353037 -0.15463567 52 35
3.6497774 1.4433198 -0.10115016 64 43
3.6753676 1.0771253 -0.29125428 33 21
3.683893 1.0789219 -0.23856874 35 25
3.7048597 0.85237104 -0.38184136 54 14
3.7011142 1.0839578 -0.18618411 32 30
3.7196147 0.85506701 -0.32943687 53 18
3.7226272 1.0895432 -0.13351843 20 38
3.7335634 0.85757327 -0.27800953 55 22
3.714288 1.2059765 -0.087125249 25 45
3.7515838 0.86169386 -0.22588533 37 26
3.634619 1.0624474 -0.4704873 42 9
3.7438321 1.2148422 -0.033353381 32 53
3.6430242 1.0649005 -0.39446199 29 13
3.7488818 1.2157571 0.02112798 20 61
3.6577063 1.0684928 -0.34283924 28 17
3.5935128 1.1647013 -0.50253356 27 8
3.7376428 0.97147638 -0.17975052 50 31
3.744585 1.0909957 -0.080268569 17 46
3.6673741 0.95258129 -0.4508428 49 10
3.6787467 1.189476 -0.19335596 38 29
3.6857383 1.1917356 -0.13937286 28 37
3.543479 1.2612073 -0.54675251 31 7
3.5374453 1.4986466 -0.26545724 57 23
3.5744472 1.2722347 -0.40758219 29 12
3.5637562 1.5090811 -0.21368593 87 27
3.5890651 1.2767341 -0.35601249 30 16
3.6030157 1.2809906 -0.30409536 32 20
3.6254704 1.2889775 -0.25250158 25 24
3.6524174 1.2971263 -0.20056213 49 28
3.6596384 1.2989726 -0.14712214 31 36
3.5213957 1.4882096 -0.37064251 63 15
3.6850007 1.3072547 -0.093999118 34 44
3.5260811 1.4894682 -0.31773293 47 19
3.7188706 1.3192751 -0.039580446 43 52
3.7245181 1.3337349 0.014367518 54 60
3.6345191 1.4226255 -0.15463567 52 35
3.6547933 1.430571 -0.10115016 72 43
3.6743157 1.0629061 -0.29087156 29 21
3.6876369 1.0660563 -0.23856874 23 25
3.7078123 0.83943343 -0.38184136 54 14
3.7000775 1.0696471 -0.18594073 32 30
3.7225769 0.84207791 -0.32943687 51 18
3.7264078 1.0765421 -0.13351843 23 38
3.7316694 0.84344095 -0.27764422 53 22
3.7184749 1.1930038 -0.087125249 29 45
3.6430726 1.051127 -0.4711096 29 9
3.7432888 1.2002405 -0.033310618 49 53
3.6514978 1.0535541 -0.39498374 23 13
3.7531028 1.2026635 0.02112798 23 61
3.6614137 1.0557184 -0.34283924 27 17
3.6022763 1.1536614 -0.50319916 26 8
3.736172 0.95718747 -0.17951585 45 31
3.7531755 1.0792977 -0.080372408 20 46
3.6706772 0.93977404 -0.4508428 46 10
3.6781194 1.1751086 -0.19310388 53 29
3.6946356 1.1803827 -0.13955434 31 37
3.5478601 1.2488307 -0.54675251 36 7
3.5472534 1.4882224 -0.26580518 44 23
3.5788665 1.2597498 -0.40758219 33 12
3.5690022 1.4966321 -0.21368593 33 27
3.5934997 1.2641981 -0.35601249 34 16
3.6121669 1.2700598 -0.30449545 39 20
3.6252413 1.2746589 -0.25217107 29 24
3.6569231 1.2843691 -0.20056213 43 28
3.6688647 1.2878456 -0.14731321 39 36
3.5036237 1.4662869 -0.36820731 33 15
3.6848249 1.2927282 -0.093877822 49 44
3.5312591 1.4771509 -0.31773293 47 19
3.7187355 1.3046302 -0.039529834 43 52
3.7291505 1.3207257 0.014367518 45 60
3.7710111 1.3355575 0.0698907 6 68
3.6394629 1.4099301 -0.15463567 50 35
3.6551046 1.4159971 -0.10102016 38 43
3.6780033 1.0500737 -0.29087156 25 21
3.6961348 1.0545444 -0.23888181 23 25
3.7107201 0.82648563 -0.38184136 42 14
3.7085917 1.058093 -0.18618411 34 30
3.7254934 0.82907856 -0.32943687 45 18
3.7349484 1.0648961 -0.13369204 28 38
3.7345908 0.83040977 -0.27764422 56 22
3.7178516 1.178507 -0.087012686 38 45
3.6467192 1.0384037 -0.4711096 25 9
3.7474556 1.1871667 -0.033310618 56 53
3.6551528 1.0408014 -0.39498374 23 13
3.752511 1.1880469 0.021100927 25 61
3.6650765 1.0429312 -0.34283924 23 17
3.6015563 1.1395856 -0.50253356 30 8
3.7298033 0.94170147 -0.17904653 36 31
3.7473011 1.0634644 -0.080164731 23 46
3.6739349 0.92695522 -0.4508428 40 10
3.6869612 1.1637647 -0.19335596 58 29
3.7034988 1.1689823 -0.1397358 42 37
3.5568693 1.2380656 -0.54747868 52 7
3.5478215 1.4739143 -0.26545724 36 23
3.5832419 1.2472496 -0.40758219 46 12
3.5695949 1.4822471 -0.2134077 32 27
3.5931892 1.2500105 -0.35554281 39 16
3.6165783 1.2574432 -0.30449545 46 20
3.6343811 1.2636358 -0.25250158 30 24
3.6613841 1.2715963 -0.20056213 43 28
3.6733375 1.2750312 -0.14731321 49 36
3.5179121 1.4578646 -0.36918139 36 15
3.6940372 1.2814968 -0.093999118 51 44
3.5363939 1.4648154 -0.31773293 45 19
3.7232668 1.2916414 -0.039529834 42 52
3.7337382 1.3077004 0.014367518 43 60
3.7426243 1.310814 0.069273762 28 68
3.6443624 1.3972174 -0.15463567 45 35
3.6600254 1.4032298 -0.10102016 45 43
3.6816463 1.0372288 -0.29087156 39 21
3.6997933 1.0416362 -0.23888181 25 25
3.7087221 0.81246811 -0.38133696 39 14
3.7122624 1.0451411 -0.18618411 46 30
3.7283649 0.81606907 -0.32943687 41 18
3.7386432 1.0518522 -0.13369204 31 38
3.7277217 0.81524742 -0.27691358 54 22
3.7219429 1.1655221 -0.087012686 51 45
3.6503217 1.0256683 -0.4711096 28 9
3.7515767 1.1740786 -0.033310618 66 53
3.6587639 1.0280364 -0.39498374 28 13
3.7566352 1.1749409 0.021100927 31 61
3.6734891 1.0314754 -0.34329152 31 17
3.6007826 1.1255293 -0.50186795 25 8
3.7379158 0.92987865 -0.17928119 30 31
3.7558045 1.0517234 -0.080268569 29 46
3.6819668 0.91531932 -0.45143914 30 10
3.6910009 1.1508878 -0.19335596 50 29
3.7075567 1.1560476 -0.1397358 52 37
3.5611694 1.2256423 -0.54747868 56 7
3.6963489 1.3950151 -0.047146861 39 51
3.5483336 1.4596205 -0.26510936 34 23
3.592274 1.2363524 -0.40812132 51 12
3.5747473 1.4697777 -0.2134077 37 27
3.6069448 1.2406999 -0.35648215 50 16
3.6005111 1.4796567 -0.16096745 70 34
3.6209455 1.2448113 -0.30449545 52 20
3.6387696 1.2509416 -0.25250158 49 24
3.6563556 1.2555631 -0.2000405 46 28
3.6777658 1.262201 -0.14731321 49 36
3.5183773 1.4436836 -0.36869434 35 15
3.6937599 1.2669719 -0.093877822 41 44
3.5414853 1.4524622 -0.31773293 38 19
3.7277527 1.2786369 -0.039529834 43 52
3.7335558 1.2930225 0.014349192 39 60
3.766072 1.3042886 0.069626294 49 68
3.6492174 1.3844876 -0.15463567 39 35
3.6602285 1.3886704 -0.10089014 30 43
3.6900485 1.0257041 -0.29125428 36 21
3.7034068 1.0287153 -0.23888181 43 25
3.7163994 0.80056006 -0.38184136 31 14
3.715888 1.0321766 -0.18618411 51 30
3.72632 0.80200642 -0.32900283 20 18
3.7374763 1.037461 -0.13351843 37 38
3.7354209 0.80327386 -0.27727887 52 22
3.7259889 1.1525229 -0.087012686 52 45
3.6538799 1.0129199 -0.4711096 31 9
3.7556522 1.1609759 -0.033310618 69 53
3.6671226 1.016585 -0.39550552 31 13
3.6770675 1.0186464 -0.34329152 32 17
3.6046894 1.1129533 -0.50186795 29 8
3.7314351 0.91445434 -0.17881188 37 31
3.6803172 0.90128398 -0.4508428 30 10
3.6949959 1.1379968 -0.19335596 43 29
3.7067938 1.1416286 -0.13955434 51 37
3.5654259 1.213204 -0.54747868 61 7
3.701196 1.3821039 -0.047146861 76 51
3.553407 1.4472256 -0.26510936 35 23
3.6012731 1.2254075 -0.40866047 52 12
3.570611 1.4535198 -0.21285123 34 27
3.6159663 1.2297052 -0.35695183 47 16
3.6102803 1.4689656 -0.16117597 98 34
3.6252687 1.2321643 -0.30449545 50 20
3.6431141 1.2382324 -0.25250158 46 24
3.6607161 1.2427925 -0.2000405 48 28
3.6726873 1.2461435 -0.14693108 49 36
3.5187862 1.4295171 -0.36820731 36 15
3.6981602 1.2540705 -0.093877822 38 44
3.5465338 1.4400914 -0.31773293 24 19
3.7321935 1.2656168 -0.039529834 42 52
3.7427766 1.2816024 0.014367518 36 60
3.7564137 1.2862741 0.069361895 50 68
3.6540277 1.3717412 -0.15463567 33 35
3.6650534 1.3758855 -0.10089014 28 43
3.6936061 1.0128173 -0.29125428 42 21
3.706975 1.0157818 -0.23888181 29 25
3.7143037 0.78655678 -0.38133696 23 14
3.7194684 1.0191995 -0.18618411 55 30
3.7290969 0.78899425 -0.32900283 25 18
3.741075 1.0244085 -0.13351843 44 38
3.7284422 0.78817677 -0.27654824 43 22
3.7299888 1.1395098 -0.087012686 48 45
3.6526077 0.99885279 -0.4704873 35 9
3.7596819 1.1478591 -0.033310618 54 53
3.6658516 1.0024685 -0.39498374 37 13
3.6806006 1.0058047 -0.34329152 43 17
3.6085522 1.1003639 -0.50186795 66 8
3.6834407 0.88843173 -0.4508428 31 10
3.6989455 1.1250919 -0.19335596 41 29
3.7155371 1.1301359 -0.1397358 50 37
3.569639 1.2007511 -0.54747868 57 7
3.7013083 1.3674413 -0.047086649 47 51
3.5584371 1.4348131 -0.26510936 23 23
3.6008177 1.2112437 -0.40812132 46 12
3.5756631 1.4410471 -0.21285123 34 27
3.6155183 1.2154887 -0.35648215 42 16
3.6061208 1.4526149 -0.16075896 53 34
3.6295476 1.2195022 -0.30449545 44 20
3.6426852 1.2239183 -0.25217107 43 24
3.6650319 1.2300066 -0.2000405 41 28
3.6722775 1.2317263 -0.14674 34 36
3.5329857 1.4209459 -0.36918139 36 15
3.6977761 1.2395647 -0.093756542 37 44
3.5515389 1.4277028 -0.31773293 23 19
3.7365885 1.2525812 -0.039529834 41 52
3.7472274 1.2685299 0.014367518 29 60
3.7561457 1.2715503 0.069273762 28 68
3.6634767 1.3607194 -0.15483546 28 35
3.6698339 1.3630836 -0.10089014 25 43
3.6923063 0.99861854 -0.29087156 51 21
3.7104983 1.0028356 -0.23888181 45 25
3.7218978 0.77459538 -0.38184136 28 14
3.7230034 1.0062097 -0.18618411 49 30
3.7318285 0.77597249 -0.32900283 28 18
3.7446284 1.0113435 -0.13351843 56 38
3.7339439 1.1264827 -0.087012686 39 45
3.6560719 0.98609674 -0.4704873 42 9
3.7588785 1.1332858 -0.033267859 65 53
3.6693285 0.98966616 -0.39498374 54 13
3.679281 0.99165708 -0.34283924 49 17
3.6123714 1.0877608 -0.50186795 44 8
3.69135 0.87671244 -0.45143914 41 10
3.7028506 1.1121733 -0.19335596 49 29
3.7146738 1.1157227 -0.13955434 39 37
3.5691147 1.1867218 -0.54675251 52 7
3.7107544 1.3562312 -0.047146861 50 51
3.5634239 1.4223831 -0.26510936 25 23
3.6050236 1.198667 -0.40812132 45 12
3.5853074 1.4304101 -0.21312946 33 27
3.6150157 1.2012902 -0.35601249 23 16
3.6204476 1.4437256 -0.16117597 47 34
3.6290529 1.2052538 -0.30409536 50 20
3.6361113 1.4499843 -0.10765957 40 42
3.6469352 1.2111956 -0.25217107 36 24
3.6693029 1.2172058 -0.2000405 36 28
3.6812971 1.2204732 -0.14693108 23 36
3.5379243 1.4086049 -0.36918139 27 15
3.7020802 1.2266495 -0.093756542 25 44
3.5565009 1.4152969 -0.31773293 25 19
3.7361922 1.2379574 -0.039479218 32 52
3.7468915 1.2538545 0.014349192 17 60
3.7510803 1.2552569 0.069097489 36 68
3.6635153 1.3461978 -0.15463567 28 35
3.6698787 1.3485392 -0.10076013 28 43
3.7005868 0.98700655 -0.29125428 44 21
3.7139761 0.98987746 -0.23888181 47 25
3.7245789 0.76159883 -0.38184136 32 14
3.7264931 0.99320793 -0.18618411 44 30
3.7393956 0.76393348 -0.32943687 31 18
3.7481356 0.99826616 -0.13351843 50 38
3.7378531 1.1134419 -0.087012686 34 45
3.6594918 0.97332865 -0.4704873 56 9
3.7676039 1.1215838 -0.033310618 44 53
3.6727607 0.97685176 -0.39498374 51 13
3.6875327 0.98008496 -0.34329152 53 17
3.6113961 1.0737332 -0.50120234 29 8
3.6895533 0.86269498 -0.4508428 59 10
3.7019224 1.0978222 -0.19310388 41 29
3.7137544 1.1013293 -0.13937286 25 37
3.5732353 1.174256 -0.54675251 45 7
3.7107646 1.3415681 -0.047086649 51 51
3.568367 1.4099357 -0.26510936 29 23
3.6091857 1.1860759 -0.40812132 31 12
3.7253642 1.3461179 0.0075354544 33 59
3.5949202 1.4197233 -0.2134077 38 27
3.6239159 1.1902183 -0.35648215 17 16
3.6208193 1.4292415 -0.16096745 48 34
3.6379728 1.1941338 -0.30449545 35 20
3.6411505 1.437283 -0.10765957 87 42
3.6464009 1.1969014 -0.25184056 23 24
3.6687856 1.2028339 -0.19977969 35 28
3.6760392 1.2045026 -0.14654893 20 36
3.5428197 1.3962466 -0.36918139 31 15
3.7063398 1.2137194 -0.093756542 20 44
3.5614197 1.4028739 -0.31773293 30 19
3.7404909 1.2249081 -0.039479218 29 52
3.7512453 1.2407678 0.014349192 20 60
3.7506926 1.2405851 0.069009356 29 68
3.6681919 1.3334017 -0.15463567 32 35
3.6839573 1.3391398 -0.10102016 25 43
3.7040095 0.97408319 -0.29125428 44 21
3.7174087 0.97690725 -0.23888181 32 25
3.7272146 0.74859291 -0.38184136 35 14
3.7299371 0.98019397 -0.18618411 43 30
3.7322698 0.74892545 -0.32856879 31 18
3.7467637 0.98390937 -0.1333448 43 38
3.7417173 1.1003877 -0.087012686 30 45
3.6628671 0.9605487 -0.4704873 56 9
3.7666988 1.1070164 -0.033267859 38 53
3.6713376 0.96276617 -0.39446199 57 13
3.6861143 0.96594691 -0.34283924 54 17
3.6198771 1.0625156 -0.50186795 25 8
3.6973805 0.8509208 -0.45143914 62 10
3.7009392 1.083491 -0.19285178 41 29
3.7223721 1.0897623 -0.13955434 17 37
3.5726075 1.1602472 -0.54602647 31 7
3.715425 1.328607 -0.047086649 50 51
3.5779109 1.399291 -0.26545724 38 23
3.6133039 1.1734703 -0.40812132 27 12
3.7347479 1.3347903 0.007545053 36 59
3.599854 1.4071661 -0.2134077 36 27
3.6233141 1.1760237 -0.35601249 23 16
3.6257865 1.4165938 -0.16096745 47 34
3.6421192 1.1814276 -0.30449545 29 20
3.6414917 1.4227422 -0.10752083 99 42
3.655302 1.1857059 -0.25217107 23 24
3.6729615 1.1900202 -0.19977969 28 28
3.6849744 1.1932033 -0.14674 23 36
3.5430369 1.3820597 -0.36869434 40 15
3.7153089 1.202314 -0.093877822 20 44
3.5662949 1.3904337 -0.31773293 37 19
3.7447438 1.211844 -0.039479218 31 52
3.7508013 1.2261118 0.014330866 23 60
3.7407455 1.2228231 0.06874495 39 68
3.6728241 1.3205893 -0.15463567 31 35
3.6697981 1.3194999 -0.1005001 36 43
3.7025609 0.95989877 -0.29087156 37 21
3.7159653 0.96267575 -0.23856874 29 25
3.7298052 0.735578 -0.38184136 45 14
3.7285013 0.96591777 -0.18594073 42 30
3.7397497 0.73685104 -0.32900283 32 18
3.7455356 1.0873199 -0.087012686 25 45
3.6661978 0.94775707 -0.4704873 40 9
3.6746759 0.94994491 -0.39446199 47 13
3.6894634 0.95307416 -0.34283924 35 17
3.6235642 1.0498734 -0.50186795 23 8
3.6954861 0.83691627 -0.4508428 57 10
3.704699 1.0705657 -0.19285178 28 29
3.7261536 1.0767623 -0.13955434 23 37
3.581346 1.1492817 -0.54675251 28 7
3.7200398 1.3156296 -0.047086649 50 51
3.5781233 1.3849896 -0.26510936 45 23
3.617378 1.1608504 -0.40812132 25 12
3.7299573 1.318409 0.0075258547 35 59
3.6000896 1.3927872 -0.21312946 38 27
3.6321368 1.1648896 -0.35648215 25 16
3.6307092 1.4039289 -0.16096745 47 34
3.6509669 1.170229 -0.30489561 28 20
3.6464355 1.4100224 -0.10752083 46 42
3.6546679 1.1714158 -0.25184056 23 24
3.6723378 1.1756687 -0.19951887 32 28
3.6938758 1.1818565 -0.14693108 29 36
3.5524809 1.3714792 -0.36918139 45 15
3.7194834 1.1893377 -0.093877822 28 44
3.5711267 1.3779763 -0.31773293 48 19
3.7441893 1.1972415 -0.039428603 39 52
3.7550583 1.2130116 0.014330866 23 60
3.6632922 1.3027329 -0.15403631 39 35
3.6790905 1.3083584 -0.10063011 55 43
3.566489 1.5083458 -0.16682941 11 33
3.7058892 0.9469685 -0.29087156 33 21
3.7193029 0.94969869 -0.23856874 33 25
3.7323499 0.72255397 -0.38184136 53 14
3.7318501 0.95289695 -0.18594073 39 30
3.7445023 1.0728627 -0.086900122 24 45
3.6694837 0.93495381 -0.4704873 37 9
3.6779692 0.93711209 -0.39446199 38 13
3.6927679 0.94018972 -0.34283924 37 17
3.6319714 1.0385799 -0.50253356 23 8
3.698385 0.82401156 -0.4508428 51 10
3.7084134 1.0576273 -0.19285178 31 29
3.7250841 1.0623791 -0.13937286 30 37
3.585336 1.1367735 -0.54675251 29 7
3.7246099 1.3026363 -0.047086649 48 51
3.5922494 1.3760662 -0.26580518 51 23
3.6214082 1.1482162 -0.40812132 30 12
3.7392561 1.3070328 0.0075354544 34 59
3.6095903 1.3820002 -0.2134077 42 27
3.6361811 1.152204 -0.35648215 29 16
3.7576704 1.3134778 0.062653817 20 67
3.6355875 1.3912468 -0.16096745 46 34
3.6502781 1.1559722 -0.30449545 32 20
3.651335 1.3972855 -0.10752083 46 42
3.6587346 1.1586515 -0.25184056 25 24
3.68118 1.1643492 -0.19977969 43 28
3.697979 1.1689552 -0.14693108 33 36
3.5572467 1.3590704 -0.36918139 50 15
3.7236123 1.1763471 -0.093877822 31 44
3.5805683 1.3672831 -0.31815046 53 19
3.7483459 1.1841645 -0.039428603 56 52
3.7592697 1.1998966 0.014330866 28 60
3.4691083 1.4549267 -0.42451257 62 11
3.6725295 1.2915971 -0.15423609 44 35
3.6789205 1.2938478 -0.1005001 58 43
3.5855491 1.5016897 -0.16748109 68 33
