# .PCD v0.7 - Point Cloud Data file format
VERSION 0.7
FIELDS x y z intensity ring
SIZE 4 4 4 4 2
TYPE F F F F U
COUNT 1 1 1 1 1
WIDTH 1237
HEIGHT 1
VIEWPOINT 0 0 0 1 0 0 0
POINTS 1237
DATA ascii
3.6244416 0.67643911 -0.17153737 43 31
3.6362724 0.67863822 -0.12087493 31 39
3.6307983 0.78797925 -0.076426476 43 46
3.5345356 0.65908903 -0.42758507 25 10
3.6559238 0.79342073 -0.025219459 42 54
3.5588715 0.88194382 -0.18327223 40 29
3.5707345 0.88488185 -0.13229533 23 37
3.3988807 0.94842827 -0.51262587 17 7
3.4305751 1.178409 -0.25049701 63 23
3.4486136 0.96231395 -0.38439959 17 12
3.463208 0.96573722 -0.3358165 38 16
3.4867625 0.97165346 -0.28769019 29 20
3.5047121 0.97665834 -0.23862059 17 24
3.5271649 0.98159224 -0.18934733 41 28
3.5584238 0.98962706 -0.13986157 27 36
3.3765974 1.1565287 -0.34580314 96 15
3.5697658 0.99211192 -0.089026257 20 44
3.3998914 1.1638635 -0.29810947 58 19
3.6091607 1.0030668 -0.03755587 42 52
3.4960682 1.0939163 -0.14504586 43 35
3.5591574 0.76531249 -0.27671072 49 21
3.5773625 0.76856548 -0.22729777 46 25
3.5753977 0.55090415 -0.36317804 28 14
3.5898867 0.77125043 -0.17717913 46 30
3.5949874 0.55325961 -0.31381142 29 18
3.6116383 0.77525419 -0.12709425 49 38
3.6088815 0.55473858 -0.26485798 27 22
3.5984426 0.88308322 -0.082622655 34 45
3.6269908 0.55750322 -0.21524151 25 26
3.4989092 0.74983031 -0.44434911 46 9
3.6285062 0.88978499 -0.031642951 38 53
3.5215845 0.75467902 -0.37411276 47 13
3.6335967 0.8903603 0.02004588 17 61
3.5410929 0.75820434 -0.32565203 52 17
3.4573696 0.84656554 -0.47324681 46 8
3.6267805 0.66378331 -0.17153737 42 31
3.6435354 0.66683722 -0.12103983 49 39
3.6335266 0.77530062 -0.076426476 43 46
3.5368147 0.64674723 -0.42758507 28 10
3.6586709 0.78065437 -0.025219459 40 54
3.5619283 0.86951566 -0.18327223 40 29
3.5835102 0.87478071 -0.13265827 14 37
3.392632 0.93393081 -0.51117373 20 7
3.4252238 1.1632118 -0.24980119 36 23
3.4519517 0.95027018 -0.38439959 20 12
3.4665582 0.95364261 -0.3358165 20 16
3.4853272 0.95815456 -0.28729007 30 20
3.5080998 0.96441865 -0.23862059 17 24
3.53057 0.9692741 -0.18934733 37 28
3.5618565 0.97719979 -0.13986157 17 36
3.4230232 1.1591311 -0.35018659 56 15
3.5732071 0.97964507 -0.089026257 24 44
3.4039335 1.1519886 -0.29810947 50 19
3.6078184 0.98913968 -0.037505258 47 52
3.5094109 1.084661 -0.14544544 50 35
3.5618072 0.75288403 -0.27671072 47 21
3.5800235 0.75607347 -0.22729777 43 25
3.5772991 0.53842038 -0.36317804 29 14
3.5974438 0.75974452 -0.17742251 44 30
3.5968966 0.54070741 -0.31381142 35 18
3.6143224 0.7626425 -0.12709425 40 38
3.6157279 0.54287314 -0.26522329 33 22
3.6015031 0.87051684 -0.082622655 23 45
3.6190417 0.54336721 -0.21465018 28 26
3.5015051 0.73761231 -0.44434911 50 9
3.6364501 0.8782869 -0.03168571 25 53
3.5241971 0.74238187 -0.37411276 47 13
3.6415429 0.87884355 0.020072933 14 61
3.5437179 0.745839 -0.32565203 47 17
3.4651215 0.83565301 -0.47391245 29 8
3.6290758 0.65111947 -0.17153737 41 31
3.6409216 0.65323597 -0.12087493 49 39
3.6362109 0.76261252 -0.076426476 42 46
3.5341637 0.63352513 -0.42698869 31 10
3.6564798 0.76685429 -0.025185425 40 54
3.5649416 0.85707688 -0.18327223 39 29
3.5816834 0.8610993 -0.13247681 26 37
3.4054193 0.92467666 -0.51262587 20 7
3.4292634 1.1512485 -0.24980119 49 23
3.4552479 0.93821484 -0.38439959 17 12
3.4466345 1.156425 -0.2006088 68 27
3.4650619 0.94023192 -0.33534685 20 16
3.4886508 0.94598275 -0.28729007 25 20
3.5162601 0.95347375 -0.2389511 20 24
3.5387514 0.95824993 -0.18960814 28 28
3.5652459 0.96476066 -0.13986157 23 36
3.3893065 1.1345106 -0.34629017 66 15
3.5766048 0.9671663 -0.089026257 28 44
3.407934 1.1400998 -0.29810947 48 19
3.6112492 0.97654003 -0.037505258 42 52
3.6133175 0.9886142 0.013597829 36 60
3.5179534 1.0738649 -0.14564523 50 35
3.5644133 0.74044639 -0.27671072 43 21
3.5777547 0.74256033 -0.22698469 29 25
3.5840793 0.5266481 -0.36368245 30 14
3.5951836 0.74616969 -0.17717913 34 30
3.598762 0.52814859 -0.31381142 42 18
3.6169624 0.75002152 -0.12709425 20 38
3.6176009 0.53024858 -0.26522329 41 22
3.6093829 0.85909677 -0.082735218 17 45
3.6357341 0.53288746 -0.21553718 28 26
3.5089169 0.72638869 -0.44497141 43 9
3.6394937 0.86558795 -0.03168571 30 53
3.526767 0.73007554 -0.37411276 32 13
3.6494534 0.86728221 0.020099986 17 61
3.5462999 0.73346454 -0.32565203 46 17
3.4680171 0.82355237 -0.47391245 23 8
3.6264067 0.63758636 -0.17130271 42 31
3.648102 0.64138454 -0.12103983 49 39
3.6437473 0.75092202 -0.076530315 25 46
3.5363538 0.62118483 -0.42698869 45 10
3.6689291 0.75610024 -0.025253493 38 54
3.5630522 0.84347814 -0.18302011 29 29
3.5846674 0.84859169 -0.13247681 28 37
3.4038477 0.91150349 -0.51189977 23 7
3.4332612 1.139271 -0.24980119 45 23
3.4585021 0.92614806 -0.38439959 20 12
3.4506502 1.144387 -0.2006088 40 27
3.4779396 0.93070585 -0.33628619 28 16
3.4967463 0.93508756 -0.28769019 31 20
3.519567 0.94119388 -0.2389511 20 24
3.5420747 0.94589156 -0.18960814 47 28
3.5589373 0.94973183 -0.13947943 29 36
3.3885231 1.1211063 -0.34580314 49 15
3.5799592 0.95467567 -0.089026257 36 44
3.4166219 1.1297647 -0.298527 47 19
3.6146359 0.9639284 -0.037505258 42 52
3.6264007 0.97860211 0.013634481 55 60
3.5264628 1.0630224 -0.14584501 49 35
3.537642 1.0663975 -0.095169559 58 43
3.5669765 0.72799975 -0.27671072 36 21
3.5803249 0.73006713 -0.22698469 20 25
3.5858955 0.51413411 -0.36368245 31 14
3.5977662 0.73361564 -0.17717913 33 30
3.600584 0.5155834 -0.31381142 52 18
3.6146622 0.73639607 -0.12692064 17 38
3.6194298 0.51761758 -0.26522329 48 22
3.6123595 0.84649241 -0.082735218 30 45
3.6276886 0.51879001 -0.21494585 30 26
3.5114312 0.71413589 -0.44497141 39 9
3.6424932 0.85287845 -0.03168571 33 53
3.5341671 0.71874923 -0.37463453 31 13
3.6524587 0.85453796 0.020099986 17 61
3.5488386 0.7210812 -0.32565203 43 17
3.4708707 0.81144172 -0.47391245 17 8
3.6335328 0.62576807 -0.17153737 42 31
3.6503186 0.62864631 -0.12103983 45 39
3.6414461 0.7372086 -0.076426476 14 46
3.5433934 0.60967499 -0.42758507 46 10
3.6617441 0.74130875 -0.025185425 37 54
3.5708385 0.83216822 -0.18327223 31 29
3.5973408 0.8383404 -0.13283975 23 37
3.4261401 0.90467113 -0.51480418 23 7
3.437217 1.1272799 -0.24980119 43 23
3.4617136 0.91407001 -0.38439959 25 12
3.4593668 1.1338935 -0.20088704 37 27
3.4811676 0.91855991 -0.33628619 33 16
3.5096269 0.92541885 -0.28849044 35 20
3.5276549 0.9301753 -0.23928159 32 24
3.5453548 0.93352163 -0.18960814 43 28
3.5573993 0.93603104 -0.13928837 30 36
3.3924158 1.1092713 -0.34580314 39 15
3.5881038 0.94344538 -0.089147553 47 44
3.4205449 1.1178315 -0.298527 45 19
3.6179786 0.95130515 -0.037505258 42 52
3.6152997 0.96207803 0.013579504 44 60
3.5301518 1.0507061 -0.14584501 46 35
3.5461328 1.0554703 -0.095299579 34 43
3.5694957 0.71554422 -0.27671072 35 21
3.5877445 0.71854275 -0.22729777 23 25
3.5876687 0.50161386 -0.36368245 55 14
3.6003051 0.72105265 -0.17717913 33 30
3.6072955 0.50369555 -0.31424546 46 18
3.6221104 0.72475231 -0.12709425 20 38
3.6261542 0.50566399 -0.26558861 51 22
3.6152923 0.83387774 -0.082735218 33 45
3.5187683 0.7028439 -0.44559377 25 9
3.645448 0.84015858 -0.03168571 49 53
3.5415318 0.70738012 -0.37515631 17 13
3.6554191 0.84178329 0.020099986 20 61
3.5562179 0.70966136 -0.32610434 34 17
3.4736819 0.79932117 -0.47391245 20 8
3.6307695 0.6122539 -0.17130271 41 31
3.6439974 0.72449309 -0.076426476 17 46
3.5455 0.5973025 -0.42758507 45 10
3.5737214 0.81969863 -0.18327223 55 29
3.5953748 0.82466191 -0.13265827 28 37
3.4244902 0.89145929 -0.51407808 28 7
3.4411311 1.1152749 -0.24980119 31 23
3.4648831 0.90198088 -0.38439959 29 12
3.4585555 1.1202692 -0.2006088 54 27
3.4843524 0.90640283 -0.33628619 41 16
3.499095 1.1327586 -0.15200165 41 34
3.5080123 0.91190773 -0.28809032 50 20
3.5308802 0.91785586 -0.23928159 28 24
3.5534248 0.92239559 -0.18986896 40 28
3.5654807 0.92486286 -0.13947943 41 36
3.3962672 1.0974227 -0.34580314 30 15
3.5816984 0.92840487 -0.088904969 44 44
3.4244261 1.1058847 -0.298527 42 19
3.6164379 0.937415 -0.037454642 43 52
3.6283081 0.9519918 0.013616155 40 60
3.5385911 1.039788 -0.14604481 44 35
3.5497956 1.0430857 -0.095299579 52 43
3.5719719 0.70308006 -0.27671072 26 21
3.5902312 0.70601481 -0.22729777 23 25
3.5893977 0.48908755 -0.36368245 38 14
3.6028004 0.70848078 -0.17717913 33 30
3.6040955 0.49043417 -0.31381142 42 18
3.6295221 0.71306551 -0.12726788 23 38
3.6229553 0.49233678 -0.26522329 54 22
3.6181812 0.821253 -0.082735218 37 45
3.5212002 0.69055694 -0.44559377 23 9
3.6483586 0.82742852 -0.03168571 50 53
3.5439794 0.69501364 -0.37515631 31 13
3.6583352 0.82901835 0.020099986 23 61
3.5586731 0.69724357 -0.32610434 28 17
3.4716177 0.78609723 -0.47324681 25 8
3.6230276 0.59795702 -0.17083338 40 31
3.6563172 0.71367979 -0.076634154 23 46
3.5475636 0.58492279 -0.42758507 46 10
3.576561 0.80721903 -0.18327223 45 29
3.6031058 0.81320602 -0.13283975 33 37
3.4132061 0.87580919 -0.51189977 31 7
3.5945723 1.0358465 -0.04461791 95 51
3.4450033 1.1032563 -0.24980119 29 23
3.4728255 0.89111686 -0.38493875 32 12
3.4671984 1.1097151 -0.20088704 36 27
3.492317 0.89547181 -0.33675587 48 16
3.4839995 1.1144356 -0.15116763 45 34
3.5111742 0.89965689 -0.28809032 51 20
3.5340626 0.90552515 -0.23928159 28 24
3.5566227 0.90998632 -0.18986896 48 28
3.5686874 0.91241133 -0.13947943 46 36
3.4095559 1.088595 -0.34677723 31 15
3.5849173 0.91589677 -0.088904969 50 44
3.4282656 1.0939245 -0.298527 33 19
3.619688 0.92478561 -0.037454642 42 52
3.631609 0.9393208 0.013616155 39 60
3.6455939 0.94294012 0.065748379 51 68
3.5421994 1.0274296 -0.14604481 40 35
3.5534151 1.0306882 -0.095299579 31 43
3.5792992 0.69155079 -0.27709344 29 21
3.5926735 0.69347823 -0.22729777 33 25
3.591083 0.47655523 -0.36368245 42 14
3.6052513 0.69590032 -0.17717913 39 30
3.610724 0.4784998 -0.31424546 40 18
3.6319888 0.70039177 -0.12726788 29 38
3.6197076 0.47903815 -0.26485798 53 22
3.6210258 0.80861813 -0.082735218 49 45
3.5235894 0.67826134 -0.44559377 25 9
3.6512246 0.81468827 -0.03168571 59 53
3.5463839 0.68263853 -0.37515631 23 13
3.6660869 0.8173306 0.020127039 33 61
3.5610855 0.68481719 -0.32610434 27 17
3.4791775 0.775051 -0.47391245 29 8
3.6201618 0.58451414 -0.17059873 39 31
3.6489668 0.6990357 -0.076426476 23 46
3.5544851 0.57332271 -0.42818138 35 10
3.5842316 0.79581118 -0.18352431 42 29
3.6059225 0.80062383 -0.13283975 48 37
3.4306302 0.86753023 -0.51407808 38 7
3.598166 1.0232928 -0.04461791 43 51
3.4488332 1.0912243 -0.24980119 31 23
3.4807336 0.88020837 -0.38547787 42 12
3.471051 1.0976056 -0.20088704 33 27
3.5002477 0.88449615 -0.33722553 50 16
3.5164425 1.1113207 -0.15241867 43 34
3.5239573 0.88983691 -0.28889057 55 20
3.5420392 0.8944056 -0.2396121 48 24
3.5597775 0.89756572 -0.18986896 46 28
3.5718505 0.89994866 -0.13947943 42 36
3.4133348 1.0766867 -0.34677723 24 15
3.5929394 0.90459859 -0.089026257 48 44
3.4320631 1.081951 -0.298527 23 19
3.6277421 0.91336626 -0.037505258 42 52
3.6300206 0.92540252 0.013597829 36 60
3.6440187 0.92897314 0.065660246 51 68
3.545764 1.0150589 -0.14604481 13 35
3.5569911 1.0182781 -0.095299579 34 43
3.5816915 0.67905241 -0.27709344 32 21
3.5999761 0.68185985 -0.22761086 38 25
3.5927246 0.46401712 -0.36368245 31 14
3.6125658 0.68423873 -0.17742251 47 30
3.6074317 0.4652611 -0.31381142 35 18
3.6344116 0.68770951 -0.12726788 30 38
3.6312506 0.46766394 -0.26558861 51 22
3.6287088 0.79704517 -0.082847781 47 45
3.5308108 0.66687626 -0.44621614 31 9
3.6540461 0.80193818 -0.03168571 65 53
3.5487449 0.67025524 -0.37515631 29 13
3.6689177 0.80452859 0.020127039 42 61
3.5634542 0.67238247 -0.32610434 31 17
3.4818618 0.76290172 -0.47391245 32 8
3.6271138 0.57264918 -0.17083338 30 31
3.6612108 0.68813676 -0.076634154 35 46
3.5564647 0.56091177 -0.42818138 26 10
3.582109 0.78223044 -0.18327223 40 29
3.608695 0.788032 -0.13283975 53 37
3.4336374 0.85554981 -0.51407808 47 7
3.601716 1.0107266 -0.04461791 65 51
3.4573808 1.0806705 -0.2501491 19 23
3.4789617 0.86685044 -0.38493875 44 12
3.4748611 1.0854827 -0.20088704 36 27
3.4984834 0.87106919 -0.33675587 51 16
3.4964623 1.091578 -0.15137613 48 34
3.5270419 0.87753063 -0.28889057 55 20
3.5451396 0.88203621 -0.2396121 43 24
3.5628889 0.88513434 -0.18986896 46 28
3.5749702 0.88747513 -0.13947943 36 36
3.4218225 1.0662495 -0.34726426 24 15
3.5960753 0.8920514 -0.089026257 41 44
3.4405749 1.0714493 -0.29894453 22 19
3.626056 0.8994931 -0.037454642 41 52
3.633229 0.91272575 0.013597829 14 60
3.6472394 0.91624749 0.065660246 40 68
3.5540929 1.0040358 -0.14624459 26 35
3.5605242 1.0058557 -0.095299579 23 43
3.5840399 0.66654587 -0.27709344 36 21
3.602334 0.66928941 -0.22761086 37 25
3.5943224 0.4514733 -0.36368245 20 14
3.6149323 0.67162436 -0.17742251 50 30
3.6090336 0.45266595 -0.31381142 42 18
3.63679 0.67501885 -0.12726788 36 38
3.6229637 0.45375639 -0.26485798 45 22
3.6265829 0.78331912 -0.082735218 42 45
3.5282385 0.65364575 -0.44559377 30 9
3.6568232 0.78917825 -0.03168571 54 53
3.5510631 0.65786368 -0.37515631 28 13
3.5657794 0.65993965 -0.32610434 38 17
3.4796593 0.74970013 -0.47324681 42 8
3.6192174 0.55846852 -0.17036407 41 31
3.5584009 0.54849398 -0.42818138 22 10
3.5897002 0.77076936 -0.18352431 40 29
3.611424 0.7754305 -0.13283975 53 37
3.4366031 0.84355891 -0.51407808 46 7
3.6052225 0.99814802 -0.04461791 49 51
3.4611323 1.0685954 -0.2501491 25 23
3.4819667 0.85470128 -0.38493875 41 12
3.4786289 1.0733465 -0.20088704 32 27
3.5015028 0.85885185 -0.33675587 49 16
3.5050244 1.080842 -0.15158464 49 34
3.5204029 0.86283934 -0.28809032 51 20
3.5433514 0.86846757 -0.23928159 44 24
3.5611069 0.87150455 -0.18960814 43 28
3.5877526 0.87736589 -0.13986157 35 36
3.4207683 1.0528312 -0.34677723 34 15
3.6040227 0.88068056 -0.089147553 36 44
3.444294 1.059433 -0.29894453 26 19
3.6291738 0.88683027 -0.037454642 40 52
3.6363928 0.90003788 0.013597829 14 60
3.6358576 0.89990526 0.06539584 40 68
3.5575757 0.99162364 -0.14624459 25 35
3.5688274 0.99476516 -0.095429592 23 43
3.586345 0.65403116 -0.27709344 57 21
3.6046484 0.65671086 -0.22761086 40 25
3.6008148 0.43952164 -0.36418685 23 14
3.6172545 0.65900183 -0.17742251 47 30
3.6105919 0.44006532 -0.31381142 25 18
3.6440408 0.6632126 -0.12744151 42 38
3.6292951 0.77065521 -0.082735218 39 45
3.5304985 0.64132595 -0.44559377 37 9
3.6595554 0.77640879 -0.03168571 54 53
3.5533378 0.64546418 -0.37515631 30 13
3.5729611 0.64837569 -0.32655662 54 17
3.482255 0.73754919 -0.47324681 46 8
3.5602939 0.53606951 -0.42818138 25 10
3.5923688 0.75823426 -0.18352431 40 29
3.6141088 0.76281959 -0.13283975 42 37
3.4539514 0.83504754 -0.51625639 42 7
3.6086845 0.98555744 -0.04461791 47 51
3.4696112 1.0579656 -0.25049701 33 23
3.4849288 0.84254175 -0.38493875 28 12
3.6187549 0.98763371 0.0071322834 31 59
3.4966776 1.0655736 -0.20172176 34 27
3.5044792 0.84662408 -0.33675587 33 16
3.5183313 1.0715184 -0.15200165 45 34
3.5233932 0.85054553 -0.28809032 38 20
3.5248015 1.0734941 -0.10127769 66 42
3.5463612 0.85609365 -0.23928159 37 24
3.5641274 0.85906863 -0.18960814 41 28
3.5859365 0.86366636 -0.13967051 20 36
3.4244227 1.0408841 -0.34677723 38 15
3.607075 0.86809486 -0.089147553 25 44
3.4479711 1.0474036 -0.29894453 32 19
3.6371076 0.87532729 -0.037505258 32 52
3.6443701 0.88852412 0.013616155 17 60
3.6389766 0.88720834 0.06539584 25 68
3.5610156 0.97919929 -0.14624459 25 35
3.5674593 0.98097432 -0.095299579 22 43
3.5886059 0.64150852 -0.27709344 50 21
3.6069188 0.64412433 -0.22761086 47 25
3.5973866 0.4263694 -0.36368245 25 14
3.6195328 0.64637119 -0.17742251 46 30
3.6071584 0.42687902 -0.31337738 23 18
3.6414137 0.64961302 -0.12726788 49 38
3.631963 0.7579819 -0.082735218 23 45
3.5327158 0.62899834 -0.44559377 58 9
3.6622436 0.76362985 -0.03168571 45 53
3.5555692 0.63305682 -0.37515631 45 13
3.5752027 0.63589966 -0.32655662 56 17
3.4896598 0.72639859 -0.47391245 47 8
3.5621433 0.52363843 -0.42818138 28 10
3.5998836 0.74670351 -0.18377641 40 29
3.6167495 0.75019932 -0.13283975 17 37
3.4568453 0.82298595 -0.51625639 29 7
3.6121025 0.97295475 -0.04461791 42 51
3.4780579 1.0472896 -0.25084493 33 23
3.4926841 0.83152395 -0.38547787 17 12
3.6221805 0.97499585 0.0071322834 32 59
3.5003757 1.0533614 -0.20172176 36 27
3.5074131 0.83438605 -0.33675587 28 16
3.5220504 1.0592307 -0.15200165 45 34
3.5263407 0.83824146 -0.28809032 43 20
3.5333128 1.0626267 -0.10141642 63 42
3.5493281 0.84370935 -0.23928159 20 24
3.5671043 0.84662223 -0.18960814 38 28
3.5889292 0.8511439 -0.13967051 31 36
3.4280353 1.0289242 -0.34677723 41 15
3.6100833 0.85549849 -0.089147553 22 44
3.4516065 1.0353614 -0.29894453 38 19
3.6401412 0.86262608 -0.037505258 29 52
3.6474495 0.87579745 0.013616155 17 60
3.671217 0.88150793 0.065924652 23 68
3.5644121 0.96676308 -0.14624459 31 35
3.5708621 0.96851552 -0.095299579 30 43
3.4215531 0.92730814 -0.57082784 54 6
3.5908234 0.62897807 -0.27709344 49 21
3.6140611 0.63238782 -0.22792393 48 25
3.6037955 0.41437271 -0.36418685 25 14
3.6217673 0.63373274 -0.17742251 44 30
3.6234741 0.41597414 -0.3146795 28 18
3.648582 0.63775647 -0.12744151 46 38
3.6394837 0.74630278 -0.082847781 25 45
3.5348899 0.61666298 -0.44559377 49 9
3.6648867 0.75084162 -0.03168571 39 53
3.5626564 0.621494 -0.37567806 49 13
3.5823064 0.62426883 -0.32700893 52 17
3.4921744 0.71421289 -0.47391245 39 8
3.5688643 0.51190233 -0.42877775 31 10
3.5975747 0.73313653 -0.18352431 39 29
3.6193461 0.73756993 -0.13283975 14 37
3.4645131 0.81204385 -0.5169825 23 7
3.6154768 0.9603402 -0.04461791 46 51
3.4769125 1.0337176 -0.25049701 43 23
3.5004051 0.82046223 -0.38601699 20 12
3.6255617 0.96234614 0.0071322834 35 59
3.5040312 1.0411364 -0.20172176 37 27
3.5199976 0.82440954 -0.33769521 25 16
3.5257261 1.04693 -0.15200165 45 34
3.5340979 0.82706344 -0.28849044 32 20
3.5370004 1.0502867 -0.10141642 48 42
3.5522516 0.83131468 -0.23928159 20 24
3.5700381 0.83416563 -0.18960814 30 28
3.601609 0.84088427 -0.14005263 20 36
3.4459162 1.0212044 -0.34823838 43 15
3.6130474 0.84289169 -0.089147553 25 44
3.4647522 1.0261438 -0.29977956 45 19
3.6431301 0.84991431 -0.037505258 32 52
3.6504843 0.86306018 0.013616155 20 60
3.3442516 1.1091837 -0.39734378 45 11
3.6353521 0.85948026 0.065219566 34 68
3.5629394 0.95302206 -0.14604481 32 35
3.5742209 0.95604497 -0.095299579 31 43
3.4247692 0.91535896 -0.57082784 59 6
3.4579077 1.145004 -0.15683702 23 33
3.5929968 0.61643994 -0.27709344 38 21
3.6113279 0.61892772 -0.22761086 25 25
3.6052198 0.40179056 -0.36418685 30 14
3.6190345 0.62024504 -0.17717913 44 30
3.6050994 0.40114036 -0.31294334 30 18
3.6507859 0.62501663 -0.12744151 40 38
3.637166 0.73260772 -0.082735218 13 45
3.5370209 0.60432023 -0.44559377 50 9
3.6674855 0.7380442 -0.03168571 38 53
3.5599022 0.60821903 -0.37515631 50 13
3.574646 0.61008924 -0.32610434 49 17
3.4946461 0.70201862 -0.47391245 25 8
3.5706296 0.49944156 -0.42877775 50 10
3.6001117 0.7205742 -0.18352431 36 29
3.6169987 0.72395164 -0.13265827 17 37
3.4625068 0.79883271 -0.51625639 23 7
3.6188071 0.94771397 -0.04461791 49 51
3.4804997 1.0215746 -0.25049701 51 23
3.503248 0.80823857 -0.38601699 20 12
3.6288986 0.94968468 0.0071322834 36 59
3.5076444 1.0288986 -0.20172176 42 27
3.5228539 0.81211746 -0.33769521 26 16
3.534152 1.0360253 -0.15221016 43 34
3.5369635 0.81472212 -0.28849044 29 20
3.5406451 1.0379338 -0.10141642 49 42
3.5551317 0.81890994 -0.23928159 20 24
3.572928 0.82169873 -0.18960814 35 28
3.599653 0.82718754 -0.13986157 28 36
3.4446847 1.0077689 -0.34775132 43 15
3.6159678 0.83027464 -0.089147553 29 44
3.4635317 1.0126417 -0.29936206 49 19
3.641202 0.83607262 -0.037454642 38 52
3.6534748 0.85031229 0.013616155 23 60
3.3575411 1.1006083 -0.3984758 36 11
3.5614135 0.93930304 -0.14584501 40 35
3.5775363 0.94356287 -0.095299579 40 43
3.4279435 0.90339875 -0.57082784 58 6
3.5876012 1.0592215 -0.051083814 74 50
3.4903591 1.1422781 -0.15814038 63 33
3.5951271 0.60389423 -0.27709344 42 21
3.6036227 0.60467082 -0.22698469 36 25
3.6066003 0.38920358 -0.36418685 31 14
3.6162519 0.60678422 -0.17693575 43 30
3.6213369 0.39013913 -0.31424546 36 18
3.6446052 0.7208764 -0.082847781 26 45
3.539109 0.59197003 -0.44559377 48 9
3.5620036 0.59578896 -0.37515631 38 13
3.5816655 0.59842604 -0.32655662 47 17
3.5067995 0.69173235 -0.47524366 20 8
3.572351 0.48697466 -0.42877775 48 10
3.6026053 0.7080031 -0.18352431 33 29
3.6244071 0.71228439 -0.13283975 20 37
3.4556255 0.78454942 -0.51480418 25 7
3.6220932 0.93507624 -0.04461791 50 51
3.4840443 1.0094192 -0.25049701 54 23
3.5060477 0.79600507 -0.38601699 23 12
3.6321917 0.9370116 0.0071322834 33 59
3.5112145 1.0166484 -0.20172176 44 27
3.5256672 0.79981542 -0.33769521 25 16
3.6220641 0.9343943 0.058842175 58 67
3.5377469 1.0236824 -0.15221016 38 34
3.5397856 0.80237091 -0.28849044 32 20
3.5490465 1.026961 -0.10155516 35 42
3.5579684 0.80649531 -0.23928159 23 24
3.5757747 0.80922192 -0.18960814 49 28
3.6025186 0.8146174 -0.13986157 29 36
3.4434021 0.99435437 -0.34726426 46 15
3.6188438 0.81764758 -0.089147553 37 44
3.4670455 1.0005454 -0.29936206 51 19
3.6489747 0.82445997 -0.037505258 55 52
3.6564207 0.8375541 0.013616155 28 60
3.356638 1.0873456 -0.39790976 23 11
3.5695055 0.92812508 -0.14604481 42 35
3.585645 0.93232906 -0.095429592 43 43
3.4310763 0.89142752 -0.57082784 59 6
3.5768802 1.0424848 -0.050876994 71 50
3.4610658 1.1192937 -0.1566198 52 33
3.597213 0.5913412 -0.27709344 35 21
3.6106358 0.59289455 -0.22729777 33 25
3.6079371 0.3766118 -0.36418685 33 14
3.6183479 0.59415746 -0.17693575 42 30
3.6520066 0.70910209 -0.082960352 26 45
3.5460501 0.58041173 -0.44621614 37 9
3.5640614 0.58335155 -0.37515631 23 13
3.5788181 0.58511883 -0.32610434 37 17
3.5043273 0.67854577 -0.47457802 20 8
3.5740292 0.47450188 -0.42877775 43 10
3.6050544 0.69542336 -0.18352431 41 29
3.6317775 0.70057422 -0.13302124 28 37
3.467999 0.77464062 -0.51625639 25 7
3.6253352 0.92242712 -0.04461791 49 51
3.4923415 0.99862629 -0.25084493 50 23
3.508805 0.7837618 -0.38601699 28 12
3.6402857 0.92556143 0.007141883 44 59
3.5147417 1.0043858 -0.20172176 47 27
3.5284376 0.78750366 -0.33769521 32 16
3.6059251 0.91680938 0.058524538 63 67
3.5412989 1.0113271 -0.15221016 31 34
3.5425649 0.79000986 -0.28849044 39 20
3.5526099 1.0145663 -0.10155516 32 42
3.5656314 0.79515737 -0.2396121 25 24
3.5883248 0.7989068 -0.19012977 39 28
3.60534 0.8020373 -0.13986157 40 36
3.4468517 0.98232859 -0.34726426 25 15
3.621676 0.80501044 -0.089147553 39 44
3.4753077 0.9898054 -0.29977956 46 19
3.6518304 0.81171763 -0.037505258 48 52
3.6593218 0.82478571 0.013616155 29 60
3.3793318 1.0817 -0.40017384 25 11
3.5727236 0.91565949 -0.14604481 45 35
3.5888774 0.91980714 -0.095429592 40 43
3.3815837 0.86595416 -0.56199652 36 6
3.5997119 1.0355351 -0.051152751 71 50
3.4982486 1.1178831 -0.15814038 41 33
3.5992551 0.57878095 -0.27709344 34 21
3.6176109 0.58107674 -0.22761086 25 25
3.5993299 0.36302733 -0.36317804 41 14
3.6302624 0.58310318 -0.17742251 33 30
3.6544595 0.69634992 -0.082960352 30 45
3.5480545 0.56803018 -0.44621614 43 9
3.5709863 0.57169098 -0.37567806 23 13
3.5857561 0.57340699 -0.32655662 29 17
3.5115428 0.66723359 -0.47524366 27 8
3.5756638 0.46202332 -0.42877775 43 10
3.60746 0.68283504 -0.18352431 37 29
3.6391106 0.68882114 -0.1332027 33 37
3.4706819 0.76253033 -0.51625639 25 7
3.6285331 0.90976667 -0.04461791 49 51
3.4958062 0.98642969 -0.25084493 30 23
3.5115194 0.77150905 -0.38601699 31 12
3.6386447 0.91163152 0.0071322834 17 59
3.5230303 0.99346942 -0.20199999 39 27
3.5311651 0.77518237 -0.33769521 40 16
3.633348 0.91030204 0.058921583 58 67
3.5496147 1.0003183 -0.15241867 31 34
3.545301 0.77763915 -0.28849044 52 20
3.5561295 1.0021592 -0.10155516 19 42
3.5683854 0.78270614 -0.2396121 28 24
3.5862143 0.78530759 -0.18986896 40 28
3.6081178 0.78944743 -0.13986157 49 36
3.4502597 0.97029078 -0.34726426 30 15
3.6293468 0.79343176 -0.089268833 48 44
3.4739459 0.97631669 -0.29936206 42 19
3.6546416 0.79896539 -0.037505258 45 52
3.6621785 0.81200725 0.013616155 40 60
3.3783524 1.0683944 -0.39960784 25 11
3.5758982 0.90318286 -0.14604481 46 35
3.5920663 0.90727407 -0.095429592 33 43
3.4324315 0.86624283 -0.57002503 58 6
3.5888793 1.0188571 -0.050945934 49 50
3.5021293 1.1056651 -0.15814038 37 33
3.6061788 0.56698591 -0.27747616 30 21
3.6245475 0.56921738 -0.22792393 23 25
3.6154301 0.35189152 -0.36469129 51 14
3.6174738 0.56810969 -0.17669237 30 30
3.6568682 0.68358922 -0.082960352 37 45
3.5500154 0.55564171 -0.44621614 24 9
3.5729599 0.55922246 -0.37567806 23 13
3.5877357 0.56088686 -0.32655662 25 17
3.5138507 0.65497202 -0.47524366 25 8
3.5772545 0.44953907 -0.42877775 42 10
3.614732 0.67114943 -0.18377641 40 29
3.6365802 0.67520267 -0.13302124 49 37
3.4636517 0.74831986 -0.51480418 30 7
3.6316867 0.89709526 -0.04461791 47 51
3.4944239 0.97287971 -0.25049701 30 23
3.5141912 0.75924683 -0.38601699 37 12
3.6418049 0.89892477 0.0071322834 17 59
3.5168595 0.97848231 -0.20144351 29 27
3.5338495 0.7628516 -0.33769521 50 16
3.6365032 0.89761376 0.058921583 32 67
3.5482726 0.98657978 -0.15221016 33 34
3.5479939 0.76525903 -0.28849044 55 20
3.5596061 0.98973984 -0.10155516 20 42
3.5710957 0.77024543 -0.2396121 46 24
3.5889337 0.77278459 -0.18986896 48 28
3.6108515 0.77684796 -0.13986157 49 36
3.4584198 0.95957536 -0.34775132 28 15
3.6272078 0.77970695 -0.089147553 39 44
3.4773328 0.96418446 -0.29936206 31 19
3.6574082 0.7862035 -0.037505258 42 52
3.6649907 0.79921895 0.013616155 41 60
3.3868015 1.0580816 -0.40017384 28 11
3.5741811 0.88948631 -0.14584501 40 35
3.5952115 0.89472979 -0.095429592 36 43
3.4306455 0.85306299 -0.56922215 43 6
3.5924141 1.0063233 -0.050945934 46 50
3.6264482 1.0158836 0.00065100781 70 58
3.4916658 1.0889573 -0.1574887 51 33
3.6130638 0.55514944 -0.27785888 34 21
3.6215794 0.55580711 -0.22761086 25 25
3.6017766 0.33789062 -0.36317804 49 14
3.629308 0.55698979 -0.17717913 37 30
3.6641488 0.6717208 -0.083072916 40 45
3.5519335 0.54324651 -0.44621614 28 9
3.5748904 0.54674709 -0.37567806 28 13
3.5945947 0.5491097 -0.32700893 29 17
3.5161154 0.6427024 -0.47524366 29 8
3.5837302 0.43764749 -0.4293741 42 10
3.6170526 0.65852755 -0.18377641 42 29
3.6389148 0.66250455 -0.13302124 53 37
3.4662428 0.73622483 -0.51480418 44 7
3.6299384 0.8832286 -0.044557694 43 51
3.4977984 0.9606759 -0.25049701 24 23
3.5168197 0.74697536 -0.38601699 50 12
3.6449203 0.88620698 0.0071322834 26 59
3.5202537 0.96620023 -0.20144351 26 27
3.5364907 0.75051147 -0.33769521 50 16
3.6396143 0.88491452 0.058921583 30 67
3.5565116 0.97551298 -0.15241867 33 34
3.5555189 0.7539041 -0.28889057 51 20
3.5630391 0.97730851 -0.10155516 21 42
3.5737627 0.75777531 -0.2396121 49 24
3.5964942 0.76128691 -0.19012977 43 28
3.6184294 0.76527351 -0.14005263 44 36
3.4617484 0.94749731 -0.34775132 31 15
3.6299074 0.76704091 -0.089147553 36 44
3.4806774 0.95204043 -0.29936206 39 19
3.6601305 0.77343196 -0.037505258 42 52
3.3999653 1.0491929 -0.40130588 37 11
3.5869679 0.87938821 -0.14624459 20 35
3.6031671 0.88336706 -0.095559604 23 43
3.4336021 0.84108257 -0.56922215 58 6
3.6007226 0.99511254 -0.051014874 42 50
3.6203353 1.0005479 0.00064926245 73 58
3.5002182 1.0782379 -0.15770592 50 33
3.5210834 1.0846888 -0.10764553 78 41
3.6100492 0.54179645 -0.27747616 34 21
3.6185617 0.5424245 -0.22729777 25 25
3.6128438 0.32620043 -0.36418685 46 14
3.5538082 0.53084463 -0.44621614 31 9
3.5767772 0.53426504 -0.37567806 29 13
3.5964894 0.53655887 -0.32700893 32 17
3.5134594 0.62955159 -0.47457802 45 8
3.5852358 0.42513531 -0.4293741 37 10
3.619329 0.64589769 -0.18377641 40 29
3.6461239 0.65067548 -0.1332027 48 37
3.4736342 0.72513264 -0.51553029 48 7
3.6427224 0.87288666 -0.044678122 34 51
3.5011308 0.94846046 -0.25049701 22 23
3.5194058 0.73469484 -0.38601699 41 12
3.6479919 0.87347853 0.0071322834 14 59
3.5236049 0.95390642 -0.20144351 30 27
3.5439618 0.73917931 -0.3381649 50 16
3.6426811 0.87220454 0.058921583 23 67
3.5598953 0.96309257 -0.15241867 27 34
3.5581288 0.7414884 -0.28889057 46 20
3.5664291 0.96486527 -0.10155516 25 42
3.5763862 0.74529588 -0.2396121 40 24
3.5991297 0.74872816 -0.19012977 43 28
3.6161869 0.75162077 -0.13986157 43 36
3.4602313 0.9341073 -0.34726426 23 15
3.6374567 0.75538254 -0.089268833 28 44
3.4839792 0.93988478 -0.29936206 24 19
3.6628079 0.76065099 -0.037505258 41 52
3.4083574 1.0387716 -0.40187189 36 11
3.58516 0.86568725 -0.14604481 28 35
3.6062286 0.87078428 -0.095559604 23 43
3.4557047 0.8337304 -0.57243353 37 6
3.6041741 0.98253763 -0.051014874 41 50
3.6334517 0.99054158 0.00065100781 43 58
3.5087378 1.067472 -0.15792315 50 33
3.5152881 1.0694722 -0.10735061 77 41
3.6168516 0.52991223 -0.27785888 40 21
3.6352475 0.53195113 -0.22823702 30 25
3.5605488 0.51914984 -0.44683844 36 9
3.5835414 0.52249175 -0.37619987 32 13
3.5983403 0.52400148 -0.32700893 37 17
3.5156357 0.61728352 -0.47457802 38 8
3.5866978 0.41261786 -0.4293741 26 10
3.6215618 0.63325995 -0.18377641 40 29
3.6434512 0.63708425 -0.13302124 57 37
3.4761441 0.71300298 -0.51553029 48 7
3.6408818 0.85901576 -0.04461791 31 51
3.509238 0.93752444 -0.25084493 32 23
3.5268183 0.72340488 -0.38655615 39 12
3.6510184 0.86073929 0.0071322834 19 59
3.5317354 0.94289207 -0.20172176 35 27
3.5465205 0.72680408 -0.3381649 48 16
3.6554346 0.86178243 0.059080403 32 67
3.5535834 0.94807768 -0.15200165 35 34
3.5606954 0.72906369 -0.28889057 51 20
3.5649471 0.95111829 -0.10141642 34 42
3.5740783 0.73180592 -0.23928159 38 24
3.5968292 0.7351597 -0.18986896 41 28
3.6187885 0.73899323 -0.13986157 33 36
3.4682786 0.92330688 -0.34775132 28 15
3.6400714 0.74268085 -0.089268833 22 44
3.492053 0.92900217 -0.29977956 28 19
3.6605422 0.74686062 -0.037454642 37 52
3.407207 1.0254312 -0.40130588 43 11
3.5881603 0.85316741 -0.14604481 28 35
3.6092463 0.85819083 -0.095559604 21 43
3.4585943 0.8216626 -0.57243353 39 6
3.6075821 0.96995074 -0.051014874 45 50
3.6224046 0.97394735 0.0006483898 51 58
3.6461816 0.98035842 0.052871242 68 66
3.5172255 1.0566601 -0.15814038 49 33
3.5381401 1.0629665 -0.10794045 39 41
3.618679 0.51728374 -0.27785888 47 21
3.6272011 0.51785225 -0.22761086 30 25
3.5623395 0.50671804 -0.44683844 51 9
3.5853436 0.50997972 -0.37619987 34 13
3.6001477 0.51143777 -0.32700893 52 17
3.5226529 0.60584712 -0.47524366 49 8
3.5881164 0.40009546 -0.4293741 27 10
3.6237502 0.62061453 -0.18377641 40 29
3.6505778 0.6252051 -0.1332027 54 37
3.4834614 0.70184249 -0.51625639 35 7
3.643858 0.84630156 -0.04461791 31 51
3.5173113 0.92654335 -0.25119284 33 23
3.5293219 0.71108961 -0.38655615 29 12
3.6540008 0.84798962 0.0071322834 14 59
3.5398321 0.93183273 -0.20199999 37 27
3.5490358 0.71442002 -0.3381649 31 16
3.6827679 0.85467863 0.059477448 38 67
3.5617015 0.93694198 -0.15221016 41 34
3.5632186 0.71663004 -0.28889057 37 20
3.5634127 0.93739343 -0.10127769 42 42
3.576611 0.71932554 -0.23928159 34 24
3.5944781 0.72161639 -0.18960814 39 28
3.6213458 0.7263568 -0.13986157 17 36
3.4714804 0.91119468 -0.34775132 39 15
3.6426413 0.72997004 -0.089268833 17 44
3.5000932 0.91807479 -0.30019709 33 19
3.6680288 0.73506141 -0.037505258 35 52
3.4202864 1.0163717 -0.4024379 38 11
3.5959799 0.84177798 -0.14624459 31 35
3.6122198 0.84558702 -0.095559604 29 43
3.461441 0.80958492 -0.57243353 28 6
3.6109457 0.95735204 -0.051014874 51 50
3.625782 0.96129686 0.0006483898 47 58
3.6350863 0.96377081 0.052659187 75 66
3.5208924 1.0443761 -0.15814038 48 33
3.5274589 1.0463312 -0.10749807 38 41
3.6204627 0.5046491 -0.27785888 50 21
3.6339295 0.50587362 -0.22792393 37 25
3.5640867 0.4942801 -0.44683844 59 9
3.5871019 0.49746147 -0.37619987 53 13
3.6068437 0.49954873 -0.32746121 55 17
3.5247462 0.59354711 -0.47524366 44 8
3.5894911 0.38756815 -0.4293741 30 10
3.6209691 0.60713637 -0.18352431 39 29
3.6478102 0.61163282 -0.13302124 36 37
3.4907427 0.6906395 -0.5169825 26 7
3.64679 0.83357698 -0.04461791 40 51
3.5205243 0.91426003 -0.25119284 37 23
3.5415351 0.70069671 -0.3876344 25 12
3.6569386 0.83522964 0.0071322834 17 59
3.5478945 0.92072833 -0.20227823 37 27
3.5515079 0.70202726 -0.3381649 28 16
3.5649502 0.92450368 -0.15221016 46 34
3.5656984 0.70418775 -0.28889057 29 20
3.5715001 0.92620736 -0.10141642 40 42
3.5839944 0.70780385 -0.2396121 20 24
3.5775425 1.039533 -0.057316568 84 49
3.6067727 0.71099776 -0.19012977 29 28
3.6287615 0.71467769 -0.14005263 20 36
3.4746401 0.8990714 -0.34775132 42 15
3.6500719 0.71821624 -0.089390129 17 44
3.5032763 0.90585154 -0.30019709 41 19
3.6656671 0.72128725 -0.037454642 39 52
3.4238136 1.0044265 -0.4024379 37 11
3.5988965 0.82922059 -0.14624459 31 35
3.6151495 0.83297288 -0.095559604 28 43
3.4498198 0.79416943 -0.57002503 36 6
3.6142654 0.94474161 -0.051014874 50 50
3.6291156 0.94863462 0.0006483898 46 58
3.6481006 0.95361173 0.052800555 96 66
3.5245166 1.0320796 -0.15814038 46 33
3.53109 1.0340117 -0.10749807 47 41
3.6172621 0.49133947 -0.27747616 46 21
3.5657902 0.48183605 -0.44683844 59 9
3.5888164 0.48493707 -0.37619987 54 13
3.6085653 0.48695546 -0.32746121 57 17
3.5267968 0.58123982 -0.47524366 48 8
3.5908222 0.37503615 -0.4293741 36 10
3.6181386 0.59368533 -0.18327223 29 29
3.488276 0.67750633 -0.51625639 23 7
3.6496773 0.82084215 -0.04461791 48 51
3.523694 0.9019655 -0.25119284 47 23
3.5390797 0.68738157 -0.38709524 20 12
3.6598318 0.82245946 0.0071322834 20 59
3.5462511 0.90709758 -0.20199999 38 27
3.5539367 0.6896258 -0.3381649 27 16
3.5681558 0.912054 -0.15221016 47 34
3.5681345 0.69173688 -0.28889057 26 20
3.5747116 0.91373479 -0.10141642 40 42
3.5864432 0.69528908 -0.2396121 23 24
3.5715408 1.0242727 -0.057161238 81 49
3.6092327 0.69840348 -0.19012977 28 28
3.6361392 0.70295566 -0.14024369 25 36
3.4922199 0.89063722 -0.34921247 44 15
3.6525567 0.70547074 -0.089390129 20 44
3.5064173 0.89361733 -0.30019709 48 19
3.427299 0.99246907 -0.4024379 40 11
3.601769 0.81665301 -0.14624459 39 35
3.6180351 0.82034856 -0.095559604 33 43
3.4381328 0.77884477 -0.56761646 36 6
3.6175413 0.93211967 -0.051014874 47 50
3.6324046 0.93596083 0.0006483898 35 58
3.641726 0.93836975 0.052659187 39 66
3.5328953 1.0211624 -0.15835761 42 33
3.5442774 1.0244648 -0.107793 31 41
3.6189554 0.47870988 -0.27747616 43 21
3.5674503 0.46938622 -0.44683844 56 9
3.5904872 0.47240683 -0.37619987 52 13
3.6053059 0.47370973 -0.32700893 46 17
3.5336964 0.56971347 -0.47590926 37 8
3.597049 0.36299434 -0.42997047 54 10
3.6251194 0.5818426 -0.18352431 36 29
3.4954791 0.66625285 -0.5169825 20 7
3.6476388 0.80701524 -0.044557694 53 51
3.5364919 0.89210713 -0.25188866 52 23
3.5414577 0.67502373 -0.38709524 20 12
3.667562 0.81076062 0.007141883 32 59
3.5542359 0.89593714 -0.20227823 43 27
3.5563223 0.67721611 -0.3381649 23 16
3.5664744 0.89836949 -0.15200165 46 34
3.5754237 0.68020976 -0.2892907 30 20
3.582725 0.90247548 -0.10155516 34 42
3.5937495 0.68369895 -0.2399426 20 24
3.5895216 1.0158982 -0.057394236 35 49
3.6116486 0.68580061 -0.19012977 34 28
3.6385708 0.69025892 -0.14024369 30 36
3.4953077 0.87844163 -0.34921247 52 15
3.6549969 0.69271666 -0.089390129 23 44
3.5143466 0.8825894 -0.3006146 51 19
3.4259672 0.97912943 -0.40187189 36 11
3.604598 0.80407554 -0.14624459 45 35
3.6208768 0.80771422 -0.095559604 42 43
3.445647 0.76791447 -0.56841934 49 6
3.6207731 0.91948646 -0.051014874 52 50
3.6259592 0.92080742 0.00064664445 34 58
3.6352899 0.92318404 0.05251782 45 66
3.5364382 1.0088241 -0.15835761 32 33
3.5478318 1.0120869 -0.107793 30 41
3.6255486 0.46670872 -0.27785888 43 21
3.5690672 0.45693061 -0.44683844 50 9
3.5921147 0.45987079 -0.37619987 32 13
3.6069374 0.46112204 -0.32700893 37 17
3.5307686 0.55660421 -0.47524366 20 8
3.598294 0.35043606 -0.42997047 49 10
3.6172619 0.56763822 -0.18302011 25 29
3.502646 0.65495729 -0.5177086 20 7
3.655319 0.7953428 -0.04461791 54 51
3.5395844 0.87975699 -0.25188866 51 23
3.5437922 0.66265762 -0.38709524 28 12
3.6654844 0.79688919 0.0071322834 44 59
3.5573418 0.88352501 -0.20227823 41 27
3.5586648 0.66479808 -0.3381649 29 16
3.5695884 0.88591474 -0.15200165 42 34
3.5777764 0.66772509 -0.2892907 33 20
3.5858533 0.88996398 -0.10155516 34 42
3.5961142 0.67115027 -0.2399426 25 24
3.5834181 1.0006633 -0.057238907 50 49
3.6140206 0.67318946 -0.19012977 48 28
3.6321626 1.0136446 -0.0058674458 77 57
3.6409581 0.67755371 -0.14024369 40 36
3.4886935 0.86383599 -0.34823838 39 15
3.6623068 0.68086839 -0.089511417 34 44
3.5174062 0.87031662 -0.3006146 49 19
3.4293642 0.96716458 -0.40187189 25 11
3.6073825 0.79148823 -0.14624459 47 35
3.6236739 0.79507011 -0.095559604 45 43
3.4483068 0.75588226 -0.56841934 58 6
3.6239607 0.90684199 -0.051014874 47 50
3.6291513 0.90814483 0.00064664445 34 58
3.6384902 0.9104889 0.05251782 30 66
3.539938 0.99647343 -0.15835761 29 33
3.6472824 0.91201919 0.10465798 73 71
3.551343 0.99969643 -0.107793 20 41
3.6172619 0.45281625 -0.27709344 42 21
3.5706403 0.44446948 -0.44683844 49 9
3.5986323 0.44794121 -0.37672162 30 13
3.6085253 0.44852865 -0.32700893 23 17
3.5375876 0.54502994 -0.47590926 23 8
3.5994956 0.33787355 -0.42997047 46 10
3.6241572 0.55576438 -0.18327223 36 29
3.5049109 0.64272678 -0.5177086 25 7
3.6580729 0.78257853 -0.04461791 49 51
3.5329461 0.86501664 -0.25119284 46 23
3.5460839 0.65028346 -0.38709524 30 12
3.6731329 0.78513658 0.007141883 33 59
3.5507073 0.8687222 -0.20172176 42 27
3.5609634 0.65237194 -0.3381649 31 16
3.5823631 0.87582904 -0.15241867 32 34
3.5800855 0.65523219 -0.2892907 39 20
3.5937924 0.87863213 -0.1016939 22 42
3.5984352 0.65859336 -0.2399426 25 24
3.5868893 0.98814881 -0.057238907 44 49
3.6212599 0.66146803 -0.19039057 38 28
3.6164017 0.99563181 -0.0058360272 84 57
3.6383862 0.66394269 -0.14005263 49 36
3.4916878 0.85165298 -0.34823838 23 15
3.6646612 0.66808039 -0.089511417 35 44
3.5155828 0.85684985 -0.30019709 45 19
3.4375038 0.95652479 -0.4024379 20 11
3.6150067 0.7799471 -0.14644438 50 35
3.6264272 0.78241634 -0.095559604 33 43
3.4509242 0.74384081 -0.56841934 59 6
3.6222508 0.8929863 -0.050945934 42 50
3.6322992 0.89547122 0.00064664445 34 58
3.6416461 0.89778262 0.05251782 35 66
3.543395 0.98411065 -0.15835761 30 33
3.554811 0.98729378 -0.107793 21 41
3.6237698 0.44078666 -0.27747616 41 21
3.5770955 0.43259636 -0.4474608 31 9
3.600174 0.43537688 -0.37672162 23 13
3.6150126 0.43652454 -0.32746121 33 17
3.5394685 0.53267807 -0.47590926 25 8
3.6006529 0.32530692 -0.42997047 48 10
3.4973955 0.62873638 -0.51625639 30 7
3.6607826 0.76980466 -0.04461791 48 51
3.5310962 0.85150623 -0.25084493 32 23
3.5483322 0.63790131 -0.38709524 35 12
3.5537181 0.85632265 -0.20172176 32 27
3.5681186 0.6408186 -0.33863458 38 16
3.5756862 0.86097294 -0.15200165 32 34
3.5823507 0.64273143 -0.2892907 48 20
3.5968375 0.86608213 -0.1016939 22 42
3.6007118 0.64602852 -0.2399426 29 24
3.5903168 0.97562212 -0.057238907 41 49
3.6235471 0.64882344 -0.19039057 38 28
3.6295028 0.98563242 -0.0058517368 40 57
3.6455996 0.65211874 -0.14024369 48 36
3.4946392 0.83945948 -0.34823838 32 15
3.5185521 0.84457302 -0.30019709 41 19
3.4408216 0.94451976 -0.4024379 22 11
3.617707 0.76732361 -0.14644438 48 35
3.6291361 0.76975292 -0.095559604 28 43
3.4486721 0.73076499 -0.56761646 47 6
3.630203 0.88152003 -0.051014874 30 50
3.6402607 0.88396996 0.0006475171 18 58
3.6447577 0.88506544 0.05251782 24 66
3.5468082 0.97173589 -0.15835761 28 33
3.5582354 0.97487915 -0.107793 25 41
3.578584 0.42010733 -0.4474608 28 9
3.6016719 0.42280731 -0.37672162 25 13
3.6115685 0.42332566 -0.32700893 25 17
3.5413065 0.52031976 -0.47590926 32 8
3.6017666 0.3127363 -0.42997047 45 10
3.4995689 0.6165244 -0.51625639 39 7
3.6585512 0.75600755 -0.044557694 49 51
3.5388992 0.84033114 -0.25119284 32 23
3.5554328 0.62637466 -0.3876344 50 12
3.5566857 0.84391266 -0.20172176 33 27
3.5703337 0.62835962 -0.33863458 48 16
3.57867 0.84848624 -0.15200165 34 34
3.5894809 0.63108653 -0.28969082 53 20
3.5949764 0.8523649 -0.10155516 20 42
3.6078587 0.63432038 -0.2402731 50 24
3.5985284 0.96438265 -0.057316568 42 49
3.6208718 0.63530731 -0.19012977 48 28
3.6280928 0.97165883 -0.005843882 37 57
3.6429327 0.63852596 -0.14005263 49 36
3.5023901 0.82840484 -0.34872541 32 15
3.5214789 0.83228582 -0.30019709 30 19
3.4488919 0.93380672 -0.40300393 31 11
3.6203635 0.75469083 -0.14644438 40 35
3.6318009 0.75708026 -0.095559604 23 43
3.4608641 0.72073919 -0.56922215 46 6
3.6332581 0.8688429 -0.051014874 31 50
3.6433241 0.87125772 0.0006475171 19 58
3.6332405 0.86883873 0.052305769 22 66
3.5549996 0.96065736 -0.15857482 32 33
3.5616169 0.96245271 -0.107793 26 41
3.5800288 0.40761319 -0.4474608 25 9
3.603126 0.41023254 -0.37672162 29 13
3.6179719 0.41127658 -0.32746121 28 17
3.5529122 0.50936019 -0.4772405 50 8
3.607784 0.3005704 -0.43056679 46 10
3.5065744 0.60514683 -0.5169825 49 7
3.6611679 0.74323225 -0.044557694 36 51
3.5418108 0.82797295 -0.25119284 26 23
3.5624957 0.61480612 -0.38817352 40 12
3.5596097 0.83149242 -0.20172176 33 27
3.5823162 0.6175859 -0.33957392 47 16
3.5864737 0.83712816 -0.15221016 36 34
3.5916619 0.61855304 -0.28969082 51 20
3.6027961 0.84095055 -0.1016939 22 42
3.6100509 0.6217227 -0.2402731 46 24
3.6018722 0.95181555 -0.057316568 48 49
3.6279881 0.62351066 -0.19039057 43 28
3.6169636 0.95514423 -0.0058203181 43 57
3.6500635 0.62665194 -0.14024369 46 36
3.5101063 0.81730634 -0.34921247 25 15
3.6505215 0.96404195 0.046344288 62 65
3.5292149 0.82112116 -0.3006146 23 19
3.4521303 0.92176211 -0.40300393 26 11
3.6229758 0.7420488 -0.14644438 14 35
3.6393178 0.74540329 -0.095689617 23 43
3.4585245 0.7076627 -0.56841934 42 6
3.6362689 0.85615522 -0.051014874 32 50
3.6463432 0.85853487 0.0006475171 23 58
3.6459825 0.85844964 0.052447136 23 66
3.5535059 0.94695103 -0.15835761 44 33
3.5601268 0.94872266 -0.10764553 30 41
3.5814297 0.39511406 -0.4474608 30 9
3.6045358 0.39765278 -0.37672162 31 13
3.6193857 0.39864498 -0.32746121 29 17
3.5546684 0.49695519 -0.4772405 52 8
3.61376 0.28836626 -0.43116316 45 10
3.5086653 0.5929029 -0.5169825 50 7
3.6686428 0.73142755 -0.04461791 42 51
3.5446794 0.81560469 -0.25119284 26 23
3.5548174 0.60070896 -0.38709524 44 12
3.5624905 0.81906199 -0.20172176 39 27
3.5697248 0.60258955 -0.3381649 49 16
3.5893741 0.82460397 -0.15221016 35 34
3.5937991 0.60601199 -0.28969082 50 20
3.6057096 0.82836932 -0.1016939 26 42
3.6072795 0.60828716 -0.2399426 42 24
3.6051729 0.93923688 -0.057316568 53 49
3.6252186 0.6100136 -0.19012977 42 28
3.6202755 0.94251287 -0.0058203181 39 57
3.6473014 0.61307818 -0.14005263 43 36
3.5129378 0.80504876 -0.34921247 29 15
3.634516 0.94623554 0.046096459 85 65
3.5320594 0.80879688 -0.3006146 25 19
3.4553268 0.90970635 -0.40300393 31 11
3.6206465 0.72841018 -0.14624459 29 35
3.6369979 0.73170722 -0.095559604 17 43
3.4658113 0.6965605 -0.56922215 37 6
3.639235 0.84345704 -0.051014874 41 50
3.6493177 0.84580147 0.0006475171 26 58
3.5567896 0.93454123 -0.15835761 52 33
3.5634167 0.93628967 -0.10764553 39 41
3.5877202 0.38313472 -0.44808313 34 9
3.605902 0.38506818 -0.37672162 33 13
3.620755 0.38600856 -0.32746121 30 17
3.5563817 0.48454401 -0.4772405 48 8
3.6097944 0.27537614 -0.43056679 42 10
3.5107136 0.58065176 -0.5169825 53 7
3.6613617 0.71669203 -0.044497486 48 51
3.5475047 0.80322647 -0.25119284 32 23
3.5568926 0.58829665 -0.38709524 45 12
3.5701962 0.80772674 -0.20199999 38 27
3.5718067 0.59012526 -0.3381649 36 16
3.5971026 0.81317484 -0.15241867 39 34
3.5909755 0.59265131 -0.2892907 41 20
3.6085794 0.81577802 -0.1016939 34 42
3.5995362 0.59406549 -0.23928159 37 24
3.6035886 0.92539847 -0.057238907 51 49
3.6174726 0.59573132 -0.18960814 33 28
3.6235435 0.92987001 -0.0058203181 39 57
3.6543493 0.60115469 -0.14024369 41 36
3.5157266 0.79278147 -0.34921247 29 15
3.64748 0.93603808 0.046220373 41 65
3.5348613 0.79646277 -0.3006146 29 19
3.4584811 0.89763951 -0.40300393 37 11
3.628068 0.71673775 -0.14644438 27 35
3.6444328 0.71997809 -0.095689617 23 43
3.4682217 0.68445832 -0.56922215 27 6
3.6372836 0.8296333 -0.050945934 48 50
3.6522479 0.83305782 0.0006475171 30 58
3.5551956 0.92086262 -0.15814038 44 33
3.5618265 0.92258734 -0.10749807 40 41
3.5890357 0.37060893 -0.44808313 39 9
3.6072242 0.3724789 -0.37672162 41 13
3.6220806 0.3733674 -0.32746121 38 17
3.5580516 0.47212699 -0.4772405 46 8
3.6206365 0.26348728 -0.43175951 42 10
3.522486 0.56997544 -0.5184347 45 7
3.5551548 0.79192656 -0.25154075 36 23
3.5589247 0.57587719 -0.38709524 35 12
3.5827384 0.79743588 -0.20255646 37 27
3.5738449 0.57765377 -0.3381649 30 16
3.5999191 0.80061364 -0.15241867 46 34
3.5930221 0.58011287 -0.2892907 36 20
3.6114047 0.80317676 -0.1016939 41 42
3.6015878 0.58149713 -0.23928159 20 24
3.606797 0.9128139 -0.057238907 51 49
3.6244595 0.58389521 -0.18986896 28 28
3.6316135 0.91844654 -0.0058281724 36 57
3.5184724 0.78050447 -0.34921247 38 15
3.6410334 0.92083895 0.046096459 49 65
3.5376198 0.78411895 -0.3006146 34 19
3.4664049 0.88679785 -0.40356994 42 11
3.6354518 0.70502228 -0.14664416 31 35
3.646924 0.7072522 -0.095689617 25 43
3.465745 0.67140698 -0.56841934 23 6
3.6450348 0.81803006 -0.051014874 48 50
3.6648896 0.82250088 0.00064926245 37 58
3.5583887 0.90844697 -0.15814038 49 33
3.5650253 0.91014856 -0.10749807 40 41
3.5903075 0.3580786 -0.44808313 56 9
3.5986056 0.35890245 -0.37567806 60 13
3.5596776 0.45970416 -0.4772405 55 8
3.5244541 0.5576762 -0.5184347 37 7
3.5578973 0.77951199 -0.25154075 42 23
3.5609131 0.56345075 -0.38709524 23 12
3.575748 0.78278255 -0.20199999 37 27
3.5807562 0.56595302 -0.33863458 17 16
3.6026921 0.78804272 -0.15241867 49 34
3.5950253 0.56756741 -0.2892907 31 20
3.6190684 0.79163724 -0.10183264 42 42
3.6134515 0.57047921 -0.2399426 23 24
3.6099613 0.90021825 -0.057238907 52 49
3.631408 0.57201761 -0.19012977 23 28
3.6250961 0.90333652 -0.0058124634 33 57
3.5211754 0.76821792 -0.34921247 42 15
3.6345251 0.90569615 0.045972541 37 65
3.5403352 0.77176553 -0.3006146 44 19
3.4694793 0.87469244 -0.40356994 41 11
3.6378906 0.69232792 -0.14664416 37 35
3.6493704 0.69451779 -0.095689617 29 43
3.4777634 0.66115302 -0.57002503 33 6
3.6478682 0.80530149 -0.051014874 50 50
3.6628566 0.80862159 0.0006483898 48 58
3.561538 0.89602035 -0.15814038 48 33
3.5778716 0.90014732 -0.107793 32 41
3.5915356 0.34554389 -0.44808313 58 9
3.6097364 0.34728682 -0.37672162 63 13
3.5612607 0.44727579 -0.4772405 59 8
3.5263793 0.54537022 -0.5184347 20 7
3.5605967 0.76708782 -0.25154075 49 23
3.5726831 0.55253839 -0.38817352 23 12
3.5833387 0.77135026 -0.20227823 37 27
3.5827103 0.55345041 -0.33863458 20 16
3.6054211 0.77546215 -0.15241867 48 34
3.6019104 0.55577564 -0.28969082 29 20
3.6218097 0.77899951 -0.10183264 41 42
3.6203516 0.55862391 -0.2402731 23 24
3.6130815 0.88761169 -0.057238907 47 49
3.6235125 0.55781728 -0.18960814 25 28
3.6282275 0.89067709 -0.0058124634 25 57
3.5238357 0.75592208 -0.34921247 45 15
3.6376643 0.89300382 0.045972541 29 65
3.5430079 0.75940281 -0.3006146 52 19
3.4725113 0.86257643 -0.40356994 46 11
3.640285 0.67962509 -0.14664416 45 35
3.6517725 0.68177485 -0.095689617 36 43
3.4800503 0.64900929 -0.57002503 31 6
3.6506569 0.79256314 -0.051014874 47 50
3.6705425 0.79689527 0.00064926245 36 58
3.5646439 0.88358283 -0.15814038 43 33
3.5809917 0.88765275 -0.107793 31 41
3.5927198 0.33300498 -0.44808313 64 9
3.6109269 0.3346844 -0.37672162 58 13
3.5628002 0.43484196 -0.4772405 23 8
3.5282614 0.53305751 -0.5184347 20 7
3.5632527 0.75465435 -0.25154075 48 23
3.569675 0.53932071 -0.3876344 28 12
3.5860093 0.7588374 -0.20227823 44 27
3.5895422 0.54168457 -0.33910424 29 16
3.6081059 0.76287216 -0.15241867 47 34
3.6087563 0.54394281 -0.29009095 30 20
3.6196177 0.76531488 -0.1016939 32 42
3.6222794 0.54598314 -0.2402731 25 24
3.6161578 0.87499422 -0.057238907 45 49
3.6254375 0.54516548 -0.18960814 29 28
3.6313145 0.87800676 -0.0058124634 31 57
3.526453 0.74361694 -0.34921247 48 15
3.6359012 0.87912071 0.045910582 27 65
3.5505116 0.74806154 -0.30103213 52 19
3.4755013 0.8504498 -0.40356994 37 11
3.6377215 0.66601211 -0.14644438 48 35
3.6541302 0.66902363 -0.095689617 43 43
3.4822943 0.63685775 -0.57002503 35 6
3.6534014 0.7798152 -0.051014874 47 50
3.6733019 0.78407788 0.00064926245 28 58
3.5725579 0.87232441 -0.15835761 33 33
3.5889223 0.87633777 -0.10794045 23 41
3.5938604 0.32046202 -0.44808313 58 9
3.60712 0.32163844 -0.37619987 44 13
3.5741389 0.42356771 -0.47857171 23 8
3.5349944 0.52146089 -0.51916075 28 7
3.5658653 0.7422117 -0.25154075 47 23
3.5715358 0.5268569 -0.3876344 31 12
3.593523 0.74733531 -0.20255646 36 27
