# .PCD v0.7 - Point Cloud Data file format
VERSION 0.7
FIELDS x y z intensity ring
SIZE 4 4 4 4 2
TYPE F F F F U
COUNT 1 1 1 1 1
WIDTH 1261
HEIGHT 1
VIEWPOINT 0 0 0 1 0 0 0
POINTS 1261
DATA ascii
3.9875965 1.5093026 -0.3245514 23 21
4.1364622 1.42794 -0.021967227 43 55
4.0150537 1.5188823 -0.26705924 35 25
4.0322504 1.2598317 -0.42471656 27 14
4.0321684 1.5253494 -0.2083315 47 30
4.0520716 1.2652293 -0.36676437 23 18
4.076839 1.5414157 -0.15018652 48 38
4.0662622 1.2688679 -0.30942717 24 22
4.0890579 1.2759593 -0.25160789 17 26
4.1113186 1.2820969 -0.19318201 40 32
3.9507129 1.492206 -0.43933466 25 13
4.1280384 1.2865046 -0.13400437 20 40
3.9656496 1.4970506 -0.38173655 26 17
4.1485224 1.2928691 -0.074468352 28 48
4.1684403 1.2982594 -0.014359405 25 56
4.1682286 1.2981937 0.046098508 23 64
4.0772886 1.4011865 -0.20087002 31 31
4.093729 1.4068248 -0.14165288 20 39
3.9685645 1.3631238 -0.49974376 25 10
4.1265349 1.4084216 -0.082274824 43 47
3.9975104 1.497121 -0.32493415 29 21
4.1414218 1.4134923 -0.021967227 43 55
4.0203309 1.5048579 -0.26705924 36 25
4.0318689 1.2442861 -0.42421213 20 14
4.0421462 1.5130143 -0.20857488 44 30
4.0517025 1.2496134 -0.36633033 20 18
4.0587902 1.5184296 -0.14931838 53 38
4.0706668 1.2546662 -0.30942717 26 22
4.0934873 1.261678 -0.25160789 17 26
4.1157689 1.267738 -0.19318201 39 32
3.9558976 1.4784064 -0.43933466 33 13
4.132504 1.2720872 -0.13400437 20 40
3.9801819 1.48668 -0.38264114 25 17
4.1577892 1.2798467 -0.074554741 39 48
4.1729465 1.2837011 -0.014359405 28 56
4.1583948 1.2792382 0.045938816 33 64
4.0868855 1.3885493 -0.20110469 50 31
4.0986152 1.3925264 -0.14165288 30 39
3.9732985 1.3492626 -0.49974376 28 10
4.1314263 1.3940088 -0.082274824 47 47
4.0073876 1.4848883 -0.32531688 35 21
4.1415925 1.397432 -0.021941921 43 55
4.0255594 1.4908152 -0.26705924 38 25
4.0409479 1.2316507 -0.42471656 29 14
4.1606812 1.403051 0.038764123 12 63
4.0474033 1.4988953 -0.20857488 43 30
4.0608058 1.23691 -0.36676437 23 18
4.0640659 1.5042527 -0.14931838 49 38
4.0750217 1.2404493 -0.30942717 32 22
4.0930901 1.2459321 -0.25131223 23 26
4.1201692 1.2533635 -0.19318201 42 32
3.9656985 1.4663115 -0.43985638 50 13
4.1369195 1.2576543 -0.13400437 23 40
3.9853473 1.4727776 -0.38264114 30 17
4.1622314 1.2653255 -0.074554741 44 48
4.177402 1.2691268 -0.014359405 32 56
4.0869718 1.3726876 -0.20087002 49 31
4.1034513 1.378211 -0.14165288 42 39
3.977984 1.3353851 -0.49974376 31 10
4.1315241 1.3780001 -0.082179703 51 47
4.0031829 1.4674627 -0.3245514 41 21
4.1511889 1.3845456 -0.021967227 43 55
4.0260525 1.4750394 -0.26674613 44 25
4.0452223 1.2175376 -0.42471656 37 14
4.1465764 1.3822063 0.038586102 43 63
4.0479202 1.4830418 -0.2083315 49 30
4.0650983 1.2227274 -0.36676437 28 18
4.064599 1.4883407 -0.14914477 46 38
4.0793266 1.2262172 -0.30942717 46 22
4.0974145 1.2316369 -0.25131223 44 26
4.1245189 1.2389739 -0.19318201 43 32
3.970793 1.4524597 -0.43985638 49 13
4.141284 1.2432063 -0.13400437 44 40
3.9857867 1.4571491 -0.38218886 44 17
4.1618338 1.2493558 -0.074468352 43 48
4.1770158 1.2531047 -0.014342824 44 56
4.086998 1.3568425 -0.20063537 49 31
4.1082368 1.363879 -0.14165288 36 39
4.096158 1.4942114 -0.089821875 34 46
3.9873335 1.3230513 -0.50034004 52 10
4.0047369 1.595066 -0.21579231 43 29
4.1363087 1.3635699 -0.082179703 48 47
4.0082808 1.4534799 -0.3245514 45 21
4.151247 1.3684844 -0.021941921 43 55
4.0264845 1.4592783 -0.26643309 44 25
4.0494471 1.2034099 -0.42471656 41 14
4.1656241 1.3724084 0.038719617 49 63
4.053072 1.4689029 -0.2083315 44 30
4.0693421 1.2085303 -0.36676437 32 18
4.0697699 1.4741437 -0.14914477 41 38
4.0835824 1.2119703 -0.30942717 43 22
4.1064749 1.2187427 -0.25160789 43 26
3.9386616 1.4251543 -0.52089661 48 9
4.128819 1.224569 -0.19318201 43 32
3.9711621 1.4369001 -0.43933466 50 13
4.1408057 1.2273268 -0.13384819 38 40
3.9908485 1.4432273 -0.38218886 45 17
4.1661696 1.2348206 -0.074468352 43 48
4.1861606 1.2399324 -0.014359405 38 56
4.0964551 1.3441219 -0.20087002 48 31
4.1082234 1.3479753 -0.14148799 42 39
4.1013489 1.4799041 -0.089821875 45 46
3.9919276 1.3091249 -0.50034004 52 10
4.0056353 1.5792463 -0.21554025 50 29
4.1410432 1.3491234 -0.082179703 48 47
4.0133305 1.4394797 -0.3245514 38 21
4.1559987 1.3539857 -0.021941921 41 55
4.036252 1.4468966 -0.26674613 42 25
4.0536237 1.1892674 -0.42471656 47 14
4.1608791 1.3547692 0.038630605 41 63
4.0581751 1.4547461 -0.2083315 42 30
4.0735359 1.1943182 -0.36676437 39 18
4.0607758 1.4548775 -0.14862388 20 38
4.0925741 1.1991063 -0.30979249 45 22
4.1107039 1.204401 -0.25160789 43 26
3.9436123 1.4113972 -0.52089661 36 9
4.1330681 1.2101493 -0.19318201 43 32
3.9667885 1.4196818 -0.43829107 34 13
4.1450644 1.2128652 -0.13384819 41 40
3.9864833 1.4259372 -0.38128424 36 17
4.1704545 1.2202705 -0.074468352 43 48
4.1856623 1.2239133 -0.014342824 42 56
4.0963707 1.3282771 -0.20063537 45 31
4.1129036 1.3336266 -0.14148799 39 39
4.1017814 1.4639003 -0.089718036 43 46
3.9964728 1.2951826 -0.50034004 54 10
4.0157747 1.5670691 -0.21579231 39 29
4.1409678 1.333131 -0.082084596 43 47
4.0183301 1.4254616 -0.3245514 33 21
4.1559396 1.3379408 -0.021916613 23 55
4.0365744 1.4311328 -0.26643309 39 25
4.0529709 1.1737309 -0.42421213 48 14
4.1655831 1.3402368 0.038630605 27 63
4.0585213 1.4389046 -0.20808813 40 30
4.0728941 1.1787111 -0.36633033 43 18
4.0422764 1.4323579 -0.14775576 14 38
4.0919437 1.1834321 -0.30942717 45 22
4.1148829 1.1900445 -0.25160789 40 26
3.9485152 1.3976228 -0.52089661 23 9
4.1372676 1.1957148 -0.19318201 43 32
3.9670317 1.404169 -0.43776929 31 13
4.1492729 1.1983888 -0.13384819 29 40
3.9867418 1.4103543 -0.38083196 40 17
4.1746888 1.2057054 -0.074468352 42 48
4.1057391 1.3154908 -0.20087002 43 31
4.1175337 1.3192618 -0.14148799 20 39
4.1068664 1.4495735 -0.089718036 39 46
4.0009694 1.2812245 -0.50034004 52 10
4.131228 1.4581621 -0.029575856 11 54
4.0212207 1.5530417 -0.21579231 39 29
4.0516372 1.5647844 -0.15643151 12 37
4.145596 1.3186682 -0.082084596 30 47
4.0232816 1.4114264 -0.3245514 26 21
4.1605844 1.3234258 -0.021916613 22 55
4.0462551 1.4186831 -0.26674613 33 25
4.0570436 1.1595761 -0.42421213 48 14
4.1702361 1.3256879 0.038630605 17 63
4.0635195 1.424729 -0.20808813 31 30
4.0769839 1.1644869 -0.36633033 30 18
4.0802665 1.4297943 -0.14897114 14 38
4.0960498 1.1691414 -0.30942717 43 22
4.1142116 1.1743081 -0.25131223 17 26
3.9533696 1.3838314 -0.52089661 20 9
4.1366115 1.1798998 -0.19295606 42 32
3.9812975 1.3935952 -0.43881285 29 13
4.148623 1.1825321 -0.133692 29 40
4.0010419 1.3997142 -0.38173655 34 17
4.1740627 1.1897595 -0.074381955 39 48
4.1103058 1.3011509 -0.20087002 34 31
4.1221137 1.3048807 -0.14148799 20 39
4.1119013 1.4352289 -0.089718036 23 46
4.0054178 1.2672505 -0.50034004 40 10
4.1362929 1.4437325 -0.029575856 42 54
4.0266175 1.5389956 -0.21579231 28 29
4.0477386 1.5470653 -0.15606855 43 37
3.9314032 1.6342951 -0.33890629 54 20
4.1501741 1.3041893 -0.082084596 23 47
4.0281839 1.3973739 -0.3245514 26 21
4.1651793 1.3088945 -0.021916613 23 55
4.0511823 1.4045503 -0.26674613 20 25
4.065855 1.1467535 -0.42471656 45 14
4.1652961 1.3081328 0.038541596 20 63
4.0637484 1.4089017 -0.20784475 36 30
4.0858192 1.1515955 -0.36676437 20 18
4.0852327 1.4155427 -0.14897114 20 38
4.1001062 1.1548364 -0.30942717 25 22
4.1182857 1.1599396 -0.25131223 20 26
3.9628654 1.3716443 -0.52151901 28 9
4.1407051 1.1654533 -0.19295606 30 32
3.9861379 1.3796895 -0.43881285 38 13
4.1431017 1.1653454 -0.13337965 17 40
4.0059037 1.3857394 -0.38173655 20 17
4.1685629 1.1724832 -0.074209183 17 48
4.1100554 1.2853079 -0.20063537 26 31
4.1266437 1.2904841 -0.14148799 20 39
4.1121602 1.419238 -0.089614205 28 46
4.0050778 1.2517834 -0.49974376 36 10
4.1413069 1.4292854 -0.029575856 42 54
4.0319648 1.5249307 -0.21579231 45 29
4.0671363 1.5382278 -0.15661299 50 37
3.937084 1.620562 -0.33890629 39 20
3.9549184 1.6279055 -0.28092453 40 24
4.1547008 1.2896947 -0.082084596 30 47
4.0283213 1.381689 -0.32416871 23 21
4.1697226 1.2943474 -0.021916613 28 55
4.0560608 1.3904005 -0.26674613 20 25
4.0650396 1.1312246 -0.42421213 27 14
4.1698375 1.2935853 0.038541596 28 63
4.0733666 1.3963258 -0.20808813 37 30
4.0850139 1.135996 -0.36633033 20 18
4.0901489 1.4012738 -0.14897114 23 38
4.0993061 1.1391864 -0.30906186 22 22
4.1223097 1.145557 -0.25131223 17 26
3.9723229 1.3594072 -0.52214128 25 9
4.1399341 1.1496601 -0.19273011 31 32
3.9909296 1.3657668 -0.43881285 25 13
4.1519613 1.1522086 -0.13353583 20 40
4.0107164 1.3717479 -0.38173655 23 17
4.1822672 1.1605904 -0.074381955 23 48
4.1097441 1.2694823 -0.20040071 29 31
4.1311231 1.2760714 -0.14148799 25 39
4.1170893 1.4048752 -0.089614205 39 46
4.0141668 1.2392567 -0.50034004 30 10
4.1415381 1.4132078 -0.029541822 43 54
4.160459 1.4196563 0.031199239 9 62
4.0372634 1.5108472 -0.21579231 37 29
4.0537605 1.5170186 -0.1558871 49 37
3.9427168 1.6068091 -0.33890629 45 20
3.9605768 1.6140903 -0.28092453 50 24
4.154397 1.2737217 -0.081989482 38 47
4.0378418 1.3692181 -0.3245514 29 21
4.1742153 1.2797846 -0.021916613 31 55
4.0608892 1.3762338 -0.26674613 37 25
4.0689635 1.1170282 -0.42421213 27 14
4.1695457 1.2775601 0.03849709 34 63
4.0782161 1.3820987 -0.20808813 43 30
4.0889544 1.1217297 -0.36633033 20 18
4.095015 1.3869882 -0.14897114 29 38
4.1032577 1.1248702 -0.30906186 25 22
4.1214681 1.1298451 -0.25101656 20 26
3.9676442 1.3423567 -0.52089661 25 9
4.1439219 1.1352019 -0.19273011 32 32
4.0003834 1.3534193 -0.43933466 36 13
4.160779 1.1390235 -0.133692 23 40
4.0201979 1.3593327 -0.38218886 20 17
4.171824 1.1420368 -0.074122787 28 48
4.1189284 1.2565831 -0.20063537 46 31
4.1355524 1.2616433 -0.14148799 29 39
4.1219683 1.3904953 -0.089614205 42 46
4.0184684 1.2252373 -0.50034004 31 10
4.1417084 1.3971462 -0.02950779 45 54
4.1606507 1.4035285 0.03116346 34 62
4.0471954 1.4984788 -0.21604441 47 29
4.0684032 1.5063279 -0.15625003 63 37
3.9483016 1.5930368 -0.33890629 43 20
3.9754398 1.6039903 -0.28158551 42 24
4.1588178 1.2592124 -0.081989482 47 47
4.0425963 1.3551151 -0.3245514 36 21
4.1786571 1.265206 -0.021916613 41 55
4.0656686 1.3620502 -0.26674613 43 25
4.0680351 1.101522 -0.42370769 30 14
4.0735435 1.3646852 -0.20760137 49 30
4.092845 1.1074498 -0.36633033 23 18
4.0998321 1.3726854 -0.14897114 32 38
4.1119742 1.1118376 -0.30942717 33 22
4.0875244 1.5028684 -0.097256087 25 45
4.1253862 1.1154516 -0.25101656 23 26
3.9817164 1.3316422 -0.52214128 29 9
4.1526818 1.1220287 -0.19295606 43 32
4.0050836 1.339447 -0.43933466 40 13
4.1695561 1.1257914 -0.13384819 42 40
4.0249186 1.3452913 -0.38218886 40 17
4.1185064 1.2407601 -0.20040071 52 31
4.1399307 1.2472 -0.14148799 34 39
4.1267972 1.3760985 -0.089614205 43 46
4.0274754 1.212631 -0.50093645 28 10
4.1513033 1.3842603 -0.029541822 47 54
4.1607809 1.3874166 0.03112768 43 62
4.0477128 1.4826254 -0.21579231 43 29
4.073637 1.4921174 -0.15625003 40 37
3.9441645 1.5761778 -0.39734375 43 16
3.9584658 1.5810939 -0.33930638 45 20
3.9717486 1.5864012 -0.28092453 45 24
4.163188 1.2446877 -0.081989482 49 47
4.0473018 1.3409956 -0.3245514 41 21
4.1782565 1.2491827 -0.021891303 46 55
4.065661 1.3462833 -0.26643309 43 25
4.08147 1.0898734 -0.42471656 37 14
4.083024 1.3520256 -0.20784475 49 30
4.0966854 1.0931563 -0.36633033 25 18
4.1045985 1.3583659 -0.14897114 47 38
4.111011 1.0961969 -0.30906186 45 22
4.0927453 1.4885911 -0.097256087 48 45
4.1292553 1.1010445 -0.25101656 28 26
3.9910519 1.3192908 -0.52276361 32 9
4.1565738 1.1075264 -0.19295606 44 32
4.0097346 1.3254586 -0.43933466 43 13
4.1686292 1.1099484 -0.133692 36 40
4.0295897 1.3312336 -0.38218886 30 17
4.1228123 1.2263763 -0.20040071 48 31
4.144259 1.2327414 -0.14148799 45 39
4.1268263 1.3601218 -0.089510359 43 46
4.0269241 1.1971534 -0.50034004 30 10
4.1513605 1.3681978 -0.02950779 43 54
4.1655979 1.3728843 0.03112768 40 62
4.0528631 1.468487 -0.21579231 41 29
4.074122 1.4761869 -0.15606855 37 37
3.9264989 1.5532421 -0.39499536 38 16
3.9639609 1.5672666 -0.33930638 46 20
3.9865408 1.5761975 -0.28158551 41 24
4.0089374 1.5834379 -0.22325249 48 28
4.1675076 1.230148 -0.081989482 52 47
4.0472202 1.3253102 -0.32416871 51 21
4.1825919 1.2345903 -0.021891303 46 55
4.0703349 1.3320832 -0.26643309 42 25
4.0804377 1.0743575 -0.42421213 49 14
4.0829711 1.3362135 -0.20760137 49 30
4.1004767 1.0788496 -0.36633033 45 18
4.1093154 1.3440301 -0.14897114 49 38
4.1148124 1.08184 -0.30906186 45 22
4.0932136 1.4726043 -0.097143531 34 45
4.1330738 1.086624 -0.25101656 46 26
3.9909163 1.3038123 -0.52214128 35 9
4.155582 1.0917454 -0.19273011 43 32
4.0143366 1.3114538 -0.43933466 52 13
4.167644 1.0941256 -0.13353583 50 40
4.0342121 1.3171595 -0.38218886 38 17
4.127068 1.2119775 -0.20040071 45 31
4.1437407 1.2168624 -0.14132307 41 39
4.1363034 1.3472548 -0.089614205 43 46
4.0310783 1.1830896 -0.50034004 36 10
4.1513567 1.3521518 -0.029473756 41 54
4.1608562 1.355242 0.031056121 39 62
4.0579643 1.454331 -0.21579231 40 29
4.0745463 1.4602715 -0.1558871 17 37
3.9643416 1.552235 -0.39828306 28 16
3.964767 1.5516036 -0.33890629 50 20
3.9920185 1.5622723 -0.28158551 42 24
4.0144401 1.5694344 -0.22325249 39 28
4.1717763 1.2155931 -0.081989482 45 47
4.0565653 1.3127075 -0.3245514 41 21
4.1868758 1.2199827 -0.021891303 47 55
4.0749602 1.317867 -0.26643309 41 25
4.0841632 1.0601076 -0.42421213 46 14
4.0876107 1.3219532 -0.20760137 41 30
4.1042175 1.0645295 -0.36633033 47 18
4.1139817 1.3296776 -0.14897114 33 38
4.1185632 1.0674701 -0.30906186 45 22
4.0983286 1.4583073 -0.097143531 40 45
4.1368408 1.0721903 -0.25101656 40 26
4.000165 1.291396 -0.52276361 49 9
4.1230192 1.4662788 -0.037116323 11 53
4.1593676 1.0772331 -0.19273011 43 32
4.0188904 1.2974333 -0.43933466 46 13
4.1859555 1.083315 -0.13400437 38 40
4.0340457 1.3015422 -0.38173655 30 17
4.1312733 1.197564 -0.20040071 45 31
4.1431623 1.2010024 -0.14115816 36 39
4.1409807 1.3328081 -0.089614205 41 46
4.0304151 1.1676329 -0.49974376 53 10
4.1560512 1.3376526 -0.029473756 30 54
4.1655612 1.3407096 0.031056121 17 62
4.05831 1.4384896 -0.21554025 39 29
4.0749087 1.4443709 -0.15570562 26 37
3.9418881 1.5275916 -0.39546505 14 16
3.9748058 1.5395551 -0.33930638 39 20
4.0020995 1.5501306 -0.28191602 40 24
4.0198941 1.5554118 -0.22325249 34 28
4.1711888 1.1996448 -0.08189436 41 47
4.0563741 1.2970232 -0.32416871 32 21
4.1863027 1.2039814 -0.021865996 42 55
4.0795355 1.3036346 -0.26643309 32 25
4.0830183 1.044616 -0.42370769 49 14
4.0969577 1.3091949 -0.20784475 36 30
4.1079087 1.0501968 -0.36633033 39 18
4.1138377 1.3137908 -0.14879751 20 38
4.1222644 1.0530871 -0.30906186 45 22
4.103394 1.4439925 -0.097143531 37 45
4.1405582 1.0577434 -0.25101656 42 26
4.0046482 1.2774248 -0.52276361 30 9
4.1281123 1.4518778 -0.037116323 44 53
4.1631026 1.0627075 -0.19273011 42 32
4.0233946 1.2833967 -0.43933466 29 13
4.1800241 1.0662346 -0.133692 43 40
4.0385647 1.2874529 -0.38173655 42 17
3.9193275 1.3769388 -0.55311972 43 8
4.1354284 1.1831359 -0.20040071 42 31
4.1473298 1.1865327 -0.14115816 29 39
4.1408434 1.3168321 -0.089510359 20 46
4.0344663 1.1535571 -0.49974376 52 10
4.1606951 1.323137 -0.029473756 26 54
4.1654506 1.3246474 0.031020343 13 62
4.0585933 1.4226633 -0.21528813 30 29
4.0563478 1.4218765 -0.15479824 14 37
3.9564912 1.5173887 -0.39640439 17 16
3.9801555 1.525671 -0.33930638 30 20
4.0028276 1.5343649 -0.28158551 14 24
4.0252986 1.5413704 -0.22325249 36 28
4.0467539 1.5487791 -0.16431823 28 36
4.1753507 1.1850772 -0.08189436 29 47
4.0608768 1.2828559 -0.32416871 25 21
4.0793018 1.2878861 -0.26611999 20 25
4.0866394 1.0303572 -0.42370769 49 14
4.0967402 1.2933843 -0.20760137 41 30
4.1067176 1.0346384 -0.36589628 43 18
4.1183987 1.2994227 -0.14879751 14 38
4.1259151 1.0386913 -0.30906186 46 22
4.1084094 1.4296602 -0.097143531 36 45
4.1442251 1.0432837 -0.25101656 20 26
4.0043502 1.2619487 -0.52214128 40 9
4.1331553 1.4374591 -0.037116323 51 53
4.1667867 1.0481693 -0.19273011 40 32
4.0231066 1.2678518 -0.43881285 28 13
4.0430336 1.2733479 -0.38173655 39 17
3.9287913 1.3648752 -0.55378532 32 8
4.1395335 1.1686933 -0.20040071 39 31
4.1514463 1.1720486 -0.14115816 17 39
4.1454148 1.3023697 -0.089510359 17 46
4.0384684 1.1394672 -0.49974376 52 10
4.1605182 1.3071088 -0.029439719 20 54
4.1700497 1.3100992 0.031020343 17 62
4.0682535 1.4101225 -0.21554025 28 29
4.0896144 1.4175236 -0.1558871 26 37
3.9420042 1.4968538 -0.45340824 43 12
3.9664176 1.5053357 -0.39687407 20 16
3.9854567 1.5117685 -0.33930638 22 20
4.0081592 1.5203832 -0.28158551 17 24
4.0306549 1.52731 -0.22325249 28 28
4.0708246 1.5417247 -0.1650825 46 36
4.1698327 1.1678051 -0.081704132 17 47
4.0653296 1.2686729 -0.32416871 28 21
4.0837727 1.2736387 -0.26611999 20 25
4.0902114 1.016086 -0.42370769 35 14
4.1012301 1.2790761 -0.20760137 25 30
4.11514 1.0214928 -0.36633033 23 18
4.1229091 1.2850389 -0.14879751 20 38
4.1295156 1.0242828 -0.30906186 43 22
4.1086478 1.4136845 -0.097030967 31 45
4.1478419 1.0288113 -0.25101656 23 26
4.0134692 1.2494364 -0.52276361 37 9
4.1381478 1.423023 -0.037116323 52 53
4.1558723 1.0300258 -0.19205229 36 32
4.0322566 1.2552772 -0.43933466 29 13
4.1526723 1.4272053 0.023562703 6 61
4.0522099 1.2607048 -0.38218886 23 17
3.9429057 1.3543713 -0.55511653 23 8
4.1387753 1.1528991 -0.20016605 28 31
4.141068 1.1535362 -0.14066346 26 39
4.1451612 1.2864118 -0.089406513 25 46
4.0472045 1.1266915 -0.50034004 34 10
4.1650558 1.2925777 -0.029439719 28 54
4.1650457 1.2925746 0.030948784 20 62
4.0731511 1.395913 -0.21554025 36 29
4.0945377 1.4032395 -0.1558871 23 37
3.956511 1.4865824 -0.45448646 36 12
3.971648 1.4914811 -0.39687407 20 16
3.9907098 1.4978472 -0.33930638 27 20
4.013442 1.5063827 -0.28158551 17 24
4.0359612 1.513231 -0.22325249 35 28
4.0527897 1.5187362 -0.16412717 48 36
4.1787028 1.1545707 -0.081799246 23 47
4.0697336 1.2544745 -0.32416871 24 21
4.0881934 1.2593758 -0.26611999 25 25
4.0937333 1.0018022 -0.42370769 29 14
4.1056695 1.2647521 -0.20760137 30 30
4.1138406 1.0059432 -0.36589628 23 18
4.1225934 1.269171 -0.14862388 25 38
4.1330662 1.0098619 -0.30906186 25 22
4.1135573 1.3993341 -0.097030967 38 45
4.1465583 1.0131459 -0.25072089 23 26
4.0178056 1.2354192 -0.52276361 20 9
4.1430898 1.4085696 -0.037116323 39 53
4.1448822 1.0119716 -0.19137447 23 32
4.0366135 1.2411944 -0.43933466 26 13
4.1670976 1.415917 0.023616806 33 61
4.051825 1.2450913 -0.38173655 20 17
3.9429169 1.3390068 -0.55445093 25 8
4.1427741 1.1384451 -0.20016605 30 31
4.1498885 1.1403953 -0.14082837 30 39
4.1496263 1.2719347 -0.089406513 33 46
4.0511122 1.1125574 -0.50034004 40 10
4.1695423 1.2780312 -0.029439719 35 54
4.1695323 1.2780282 0.030948784 25 62
4.0779991 1.3816866 -0.21554025 48 29
4.099411 1.3889384 -0.1558871 32 37
3.9476988 1.4675645 -0.45286909 35 12
3.9814966 1.4793428 -0.39734375 20 16
4.000586 1.4856437 -0.33970651 30 20
4.0233526 1.4941015 -0.28191602 25 24
4.0412188 1.4991337 -0.22325249 44 28
4.0721197 1.5097926 -0.16470037 48 36
4.1730599 1.1373544 -0.081609018 29 47
4.0740876 1.240261 -0.32416871 30 21
4.0925651 1.2450978 -0.26611999 28 25
4.0923686 0.98634511 -0.42320329 27 14
4.1052814 1.2489612 -0.20735799 42 30
4.1173267 0.99157703 -0.36589628 25 18
4.1269984 1.2547727 -0.14862388 31 38
4.1317163 0.99426621 -0.30869654 33 22
4.1184168 1.3849666 -0.097030967 46 45
4.1500692 0.99866557 -0.25072089 25 26
4.0268412 1.2228265 -0.523386 23 9
4.1432419 1.3925067 -0.037073568 63 53
4.162962 1.0009876 -0.19205229 25 32
4.04568 1.2285393 -0.43985638 30 13
4.1530547 1.3949966 0.023508597 45 61
4.0609121 1.2323844 -0.38218886 33 17
3.9569626 1.3283882 -0.55578214 35 8
4.1467228 1.1239771 -0.20016605 38 31
4.1634922 1.1285112 -0.14115816 32 39
4.1540408 1.257442 -0.089406513 42 46
4.0549712 1.0984095 -0.50034004 25 10
4.1739779 1.263469 -0.029439719 42 54
4.0827971 1.3674433 -0.21554025 37 29
4.1042342 1.3746203 -0.1558871 45 37
3.9574625 1.4554919 -0.45340824 50 12
3.9866359 1.4654357 -0.39734375 25 16
4.0057478 1.4716702 -0.33970651 36 20
4.0285435 1.4800483 -0.28191602 31 24
4.0464272 1.4850183 -0.22325249 37 28
4.0773644 1.495569 -0.16470037 48 36
4.0700045 1.4920623 -0.10430869 32 44
4.0783925 1.2260321 -0.32416871 36 21
4.0968857 1.2308044 -0.26611999 43 25
4.1006274 0.97319835 -0.42370769 31 14
4.1096153 1.2346234 -0.20735799 48 30
4.1207633 0.97719878 -0.36589628 29 18
4.1313529 1.2403591 -0.14862388 41 38
4.1400156 0.98098326 -0.30906186 31 22
4.1232262 1.3705822 -0.097030967 48 45
4.1535301 0.984173 -0.25072089 28 26
4.0263324 1.2073396 -0.52276361 28 9
4.1528225 1.3796113 -0.037116323 39 53
4.1421227 0.98071736 -0.19092256 31 32
4.0451798 1.2129834 -0.43933466 34 13
4.1673899 1.3836412 0.023562703 46 61
4.0651894 1.2182018 -0.38218886 39 17
3.9662788 1.3161279 -0.55644774 49 8
4.1506214 1.1094955 -0.20016605 46 31
4.1674061 1.113971 -0.14115816 41 39
4.1584044 1.242934 -0.089406513 42 46
4.0539842 1.0829703 -0.49974376 28 10
4.1783624 1.2488914 -0.029439719 42 54
4.078063 1.3500456 -0.21503603 46 29
4.1042638 1.3587157 -0.15570562 48 37
3.9671905 1.4433692 -0.45394737 51 12
3.9917271 1.4515108 -0.39734375 44 16
4.006176 1.4559753 -0.33930638 48 20
4.0243077 1.4625676 -0.28125504 41 24
4.0515862 1.4708843 -0.22325249 46 28
4.0778642 1.4796225 -0.1645093 45 36
4.0798874 1.479551 -0.10442998 32 44
4.0826468 1.2117884 -0.32416871 40 21
4.1011572 1.2164962 -0.26611999 43 25
4.0991545 0.95775115 -0.42320329 37 14
4.1139002 1.2202708 -0.20735799 50 30
4.1241488 0.96280867 -0.36589628 28 18
4.1356573 1.2259305 -0.14862388 46 38
4.1385574 0.96539742 -0.30869654 47 22
4.1279855 1.3561811 -0.097030967 46 45
4.1569405 0.96966851 -0.25072089 32 26
4.0257649 1.191871 -0.52214128 30 9
4.1528625 1.3635477 -0.037073568 39 53
4.0493898 1.1988556 -0.43933466 40 13
4.1721945 1.3690859 0.023562703 43 61
4.064641 1.2025932 -0.38173655 44 17
3.9755578 1.3038187 -0.55711335 50 8
4.1544685 1.0950005 -0.20016605 49 31
4.1712689 1.0994173 -0.14115816 43 39
4.1627183 1.228411 -0.089406513 42 46
4.0625405 1.070074 -0.50034004 29 10
4.1826968 1.2342986 -0.029439719 42 54
4.0874972 1.3373547 -0.21528813 43 29
4.1089816 1.3443809 -0.15570562 43 37
3.9675272 1.4278284 -0.45340824 48 12
3.9874012 1.4341973 -0.39640439 49 16
4.0112338 1.4419824 -0.33930638 49 20
4.0293884 1.4485112 -0.28125504 40 24
4.0519967 1.4550446 -0.2229917 45 28
4.0783014 1.4636905 -0.16431823 42 36
4.0850267 1.4653004 -0.10442998 41 44
4.0868521 1.1975299 -0.32416871 43 21
4.1053786 1.2021731 -0.26611999 46 25
4.1073217 0.94454718 -0.42370769 49 14
4.1181345 1.2059031 -0.20735799 44 30
4.1274848 0.94840688 -0.36589628 31 18
4.1399117 1.2114868 -0.14862388 43 38
4.141902 0.95094526 -0.30869654 46 22
4.1326942 1.3417635 -0.097030967 41 45
4.1602998 0.95515215 -0.25072089 39 26
4.0251384 1.1764215 -0.52151901 49 9
4.1575971 1.3490431 -0.037073568 62 53
4.0487761 1.1833203 -0.43881285 48 13
4.1626787 1.3498887 0.023481544 12 61
4.0735946 1.1897919 -0.38218886 46 17
3.9753704 1.2884061 -0.55644774 54 8
4.1582656 1.0804919 -0.20016605 51 31
4.1750813 1.0848501 -0.14115816 47 39
4.1621804 1.2124764 -0.089302674 41 46
4.0662508 1.0558864 -0.50034004 32 10
4.1869798 1.2196907 -0.029439719 43 54
4.0873885 1.3215427 -0.21503603 40 29
4.1136494 1.3300297 -0.15570562 36 37
3.9631212 1.4106354 -0.45232996 39 12
3.9830041 1.4169321 -0.39546505 44 16
4.0115476 1.4263016 -0.33890629 40 20
4.03442 1.4344372 -0.28125504 29 24
4.0570517 1.4408917 -0.2229917 43 28
4.0786777 1.4477739 -0.16412717 29 36
4.090117 1.4510322 -0.10442998 37 44
4.1287971 1.4647601 -0.043983895 12 52
4.0438566 1.5830432 -0.17221698 31 35
4.0862179 1.1818736 -0.32378599 42 21
4.10955 1.1878353 -0.26611999 41 25
4.1105933 0.93020415 -0.42370769 52 14
4.1223187 1.1915208 -0.20735799 41 30
4.1307702 0.93399352 -0.36589628 47 18
4.1393142 1.1956437 -0.14845027 42 38
4.1403313 0.93538696 -0.30833119 48 22
4.1373529 1.3273295 -0.097030967 28 45
4.1538701 0.93843311 -0.25012958 49 26
4.0244532 1.1609906 -0.52089661 52 9
4.1575198 1.3329964 -0.037030805 30 53
4.0528827 1.1691802 -0.43881285 54 13
4.1673656 1.3353499 0.023481544 14 61
4.0729375 1.1741875 -0.38173655 45 17
3.9845636 1.2760326 -0.55711335 48 8
4.1571732 1.0647342 -0.19993137 46 31
4.1885271 1.0727437 -0.14148799 48 39
4.1663871 1.1979403 -0.089302674 28 46
4.0651026 1.0404584 -0.49974376 37 10
4.1912117 1.205068 -0.029439719 42 54
4.0919766 1.307267 -0.21503603 37 29
4.1182671 1.3156623 -0.15570562 25 37
3.9472919 1.6563832 -0.29607359 96 23
3.9680214 1.3967929 -0.45232996 33 12
3.9785345 1.3997148 -0.39452568 38 16
4.0165019 1.4122901 -0.33890629 40 20
4.039403 1.4203457 -0.28125504 14 24
4.0620561 1.4267212 -0.2229917 41 28
4.0742779 1.4302168 -0.16374503 14 36
4.0998735 1.4384016 -0.10455128 29 44
3.9310446 1.6447129 -0.35405719 42 19
4.1338854 1.450339 -0.043983895 42 52
4.0447001 1.5671113 -0.1720172 30 35
4.0903187 1.1676027 -0.32378599 35 21
4.1136713 1.173483 -0.26611999 25 25
4.1138153 0.9158498 -0.42370769 50 14
4.1216502 1.175756 -0.20711462 43 30
4.1291428 0.91849154 -0.36546227 41 18
4.1434627 1.1811874 -0.14845027 30 38
4.1435709 0.92092872 -0.30833119 46 22
4.1371956 1.3113695 -0.096918397 36 45
4.1668668 0.9260847 -0.25072089 43 26
4.028481 1.1469355 -0.52089661 42 9
4.1621475 1.3184757 -0.037030805 25 53
4.0569386 1.1550258 -0.43881285 40 13
4.1720018 1.3207949 0.023481544 13 61
4.0770116 1.1599633 -0.38173655 42 17
3.9889934 1.262116 -0.55711335 45 8
4.1608644 1.0502166 -0.19993137 41 31
4.1657343 1.1820269 -0.089198843 13 46
4.0638952 1.0250511 -0.49914739 52 10
4.1012778 1.2944779 -0.21528813 34 29
4.1228347 1.3012788 -0.15570562 17 37
3.9576542 1.6445112 -0.29642147 96 23
3.9775672 1.3845682 -0.45286909 30 12
4.0022011 1.3923635 -0.39640439 17 16
4.0214071 1.3982612 -0.33890629 29 20
4.0490479 1.4078759 -0.28158551 13 24
4.0717282 1.4141722 -0.22325249 23 28
4.0934048 1.4209033 -0.16431823 17 36
4.1048694 1.4240816 -0.10455128 14 44
3.9321599 1.629071 -0.35363969 95 19
4.1341987 1.4342606 -0.04393328 43 52
4.0548096 1.5547733 -0.17221698 42 35
4.0943689 1.1533177 -0.32378599 26 21
4.117743 1.1591165 -0.26611999 17 25
4.1121273 0.90042472 -0.42320329 48 14
4.12573 1.1613616 -0.20711462 23 30
4.1323237 0.90407252 -0.36546227 36 18
4.1138844 1.1572573 -0.14723487 17 38
4.14676 0.90645945 -0.30833119 43 22
4.141748 1.2969201 -0.096918397 28 45
4.1603203 0.90941101 -0.25012958 40 26
4.0372372 1.1342068 -0.52151901 44 9
4.1667242 1.3039392 -0.037030805 25 53
4.0657334 1.1422006 -0.43933466 30 13
4.1765866 1.3062239 0.023481544 14 61
4.0810356 1.1457247 -0.38173655 37 17
3.9933748 1.2481842 -0.55711335 41 8
4.164505 1.0356859 -0.19993137 29 31
4.1698351 1.1674786 -0.089198843 13 46
4.0674486 1.0108593 -0.49914739 50 10
4.1010036 1.278668 -0.21503603 30 29
4.1273518 1.2868795 -0.15570562 20 37
3.9541481 1.6268852 -0.29572564 97 23
3.9823761 1.3706756 -0.45286909 28 12
4.0070372 1.3783846 -0.39640439 17 16
4.0262637 1.3842154 -0.33890629 25 20
4.0492201 1.3921108 -0.28125504 17 24
4.0719175 1.3983282 -0.2229917 20 28
4.0936151 1.4049835 -0.16412717 23 36
4.1098156 1.4097443 -0.10455128 23 44
3.9424307 1.6172292 -0.35405719 96 19
4.1391802 1.4198209 -0.04393328 44 52
4.1493049 1.43707 0.015961872 9 60
4.055542 1.538836 -0.1720172 38 35
4.0983701 1.1390187 -0.32378599 43 21
4.1169548 1.1434022 -0.26580688 20 25
4.1152453 0.88606524 -0.42320329 40 14
4.1297584 1.146953 -0.20711462 14 30
4.1354542 0.88964254 -0.36546227 23 18
4.1227145 1.1442246 -0.1474085 20 38
4.149899 0.89197898 -0.30833119 42 22
4.1414738 1.2809782 -0.096805833 31 45
4.0411716 1.1201072 -0.52151901 30 9
4.1712503 1.2893866 -0.037030805 34 53
4.0649033 1.1266752 -0.43881285 30 13
4.171566 1.2886866 0.02342744 20 61
4.0802107 1.130145 -0.38128424 20 17
4.0024428 1.2356985 -0.55777901 30 8
4.1583915 1.018772 -0.19946206 20 31
4.1738849 1.1529161 -0.089198843 20 46
4.0709524 0.99665511 -0.49914739 47 10
4.105442 1.264345 -0.21503603 28 29
4.1270428 1.2709945 -0.15552413 28 37
3.9644208 1.6149572 -0.29607359 97 23
3.9871364 1.3567661 -0.45286909 27 12
4.0118241 1.3643892 -0.39640439 20 16
4.0310712 1.3701526 -0.33890629 24 20
4.0540547 1.377968 -0.28125504 23 24
4.0767736 1.384106 -0.2229917 30 28
4.1032248 1.3922914 -0.16431823 30 36
4.1147113 1.3953897 -0.10455128 31 44
3.9480522 1.6034577 -0.35405719 96 19
4.1441107 1.4053638 -0.04393328 49 52
4.1590266 1.4241979 0.015980199 38 60
4.0562119 1.5229123 -0.17181741 49 35
4.0908165 1.5359194 -0.11272133 36 43
4.1071296 1.1260221 -0.32416871 24 21
4.1257348 1.1303414 -0.26611999 25 25
4.1183133 0.87169492 -0.42320329 29 14
4.1337371 1.1325306 -0.20711462 25 30
4.1385345 0.87520164 -0.36546227 33 18
4.1556048 1.1377332 -0.14845027 29 38
4.1529875 0.87748766 -0.30833119 35 22
4.150701 1.2679738 -0.096918397 36 45
4.0450568 1.105994 -0.52151901 25 9
4.1709437 1.2733589 -0.036988042 46 53
4.0688114 1.1124791 -0.43881285 30 13
4.1760392 1.2741174 0.02342744 25 61
4.0889349 1.117206 -0.38173655 23 17
4.0067315 1.2217197 -0.55777901 28 8
4.1667781 1.0054188 -0.19969673 25 31
4.1730599 1.137027 -0.089094996 25 46
4.0792332 0.98359931 -0.49974376 28 10
4.1098304 1.2500067 -0.21503603 40 29
4.1314545 1.2565806 -0.15552413 41 37
3.9700336 1.601109 -0.29607359 39 23
3.9965594 1.3444257 -0.45340824 30 12
3.9969079 1.6111555 -0.23817077 95 27
4.0212808 1.3519639 -0.39687407 20 16
4.0405526 1.3576611 -0.33930638 28 20
4.0635691 1.365398 -0.28158551 29 24
4.0815806 1.369867 -0.2229917 42 28
4.1033235 1.3763708 -0.16412717 38 36
4.1195569 1.3810182 -0.10455128 41 44
3.944382 1.5859433 -0.35322216 37 19
4.1442513 1.3893 -0.043882672 48 52
4.1497655 1.4048598 0.015925221 33 60
4.0661864 1.5104856 -0.1720172 54 35
4.0727296 1.5129191 -0.11207126 70 43
4.1110349 1.1116787 -0.32416871 36 21
4.1296549 1.1159328 -0.26611999 29 25
4.1213307 0.85731405 -0.42320329 28 14
4.1424856 1.1193949 -0.20735799 34 30
4.1415644 0.8607502 -0.36546227 23 18
4.1595507 1.1232206 -0.14845027 38 38
4.1413751 0.85995716 -0.30723524 23 22
4.1551018 1.2534775 -0.096918397 42 45
4.048893 1.0918674 -0.52151901 23 9
4.1753626 1.258792 -0.036988042 51 53
4.0678678 1.0969766 -0.43829107 49 13
4.0928097 1.1029261 -0.38173655 33 17
4.0157166 1.209154 -0.55844456 37 8
4.160542 0.98856479 -0.19922739 28 31
4.1770034 1.1224533 -0.089094996 31 46
4.0778108 0.96821046 -0.49914739 28 10
4.109386 1.2342173 -0.21478394 48 29
4.1310296 1.2407148 -0.15534265 48 37
3.9709675 1.5853889 -0.29572564 48 23
4.0012279 1.3304667 -0.45340824 51 12
3.9978724 1.5953408 -0.23789255 42 27
4.0259752 1.3379188 -0.39687407 29 16
4.0452671 1.3435487 -0.33930638 46 20
4.0683103 1.3512052 -0.28158551 35 24
4.0815978 1.3540385 -0.22273089 44 28
4.1081028 1.3620392 -0.16412717 47 36
3.9123027 1.5579668 -0.40863213 81 15
4.1243525 1.3666298 -0.10455128 46 44
3.9545217 1.5740107 -0.35363969 46 19
4.149076 1.3748255 -0.043882672 48 52
4.1641264 1.3935405 0.015961872 40 60
4.0714335 1.4962828 -0.1720172 46 35
4.0920577 1.5038708 -0.1124613 71 43
4.1100726 1.0960389 -0.32378599 37 21
4.1287022 1.1002276 -0.26580688 34 25
4.1242981 0.84292269 -0.42320329 38 14
4.146368 1.1049281 -0.20735799 46 30
4.1396623 0.84529597 -0.3650282 25 18
4.1634459 1.1086942 -0.14845027 49 38
4.1590123 0.84847325 -0.30833119 29 22
4.1546612 1.2375394 -0.096805833 46 45
4.0526795 1.0777276 -0.52151901 29 9
4.1797314 1.2442096 -0.036988042 44 53
4.076479 1.0840467 -0.43881285 36 13
4.0966344 1.0886328 -0.38173655 40 17
4.0151634 1.193718 -0.55777901 47 8
4.0811658 0.95397025 -0.49914739 28 10
4.1136694 1.2198653 -0.21478394 40 29
4.1353354 1.2262872 -0.15534265 51 37
3.9764771 1.5715179 -0.29572564 48 23
4.0105705 1.3180444 -0.45394737 51 12
4.0080585 1.583213 -0.23817077 34 27
4.0258918 1.3223035 -0.39640439 44 16
4.045198 1.327865 -0.33890629 38 20
4.0635223 1.3338827 -0.28092453 47 24
4.0862994 1.3397827 -0.22273089 43 28
4.1080847 1.3461344 -0.16393609 44 36
3.9177175 1.5443007 -0.40863213 33 15
4.1243472 1.3506685 -0.10442998 43 44
3.9599922 1.5601974 -0.35363969 46 19
4.1538496 1.3603342 -0.043882672 46 52
4.1642189 1.3774259 0.015943546 39 60
4.1636047 1.3772227 0.076677062 23 68
4.0719371 1.4803529 -0.17181741 44 35
4.0878887 1.4861588 -0.11220128 40 43
4.1138735 1.0816855 -0.32378599 41 21
4.1325173 1.0858091 -0.26580688 45 25
4.1223373 0.8275463 -0.42269889 41 14
4.1453695 1.0891808 -0.20711462 48 30
4.1425877 0.83084071 -0.3650282 28 18
4.1672907 1.0941541 -0.14845027 48 38
4.1472778 0.83102417 -0.30723524 33 22
4.1589556 1.2230295 -0.096805833 46 45
4.056417 1.0635744 -0.52151901 33 9
4.1840491 1.229612 -0.036988042 64 53
4.0802383 1.0698104 -0.43881285 41 13
4.0955925 1.0730661 -0.38128424 45 17
4.0050402 1.17551 -0.55578214 50 8
4.0893092 0.94082856 -0.49974376 29 10
4.122695 1.2069008 -0.21503603 44 29
4.1395907 1.2118448 -0.15534265 43 37
4.129642 1.4769181 -0.052385401 12 51
3.9819388 1.5576279 -0.29572564 53 23
4.0104189 1.3025007 -0.45340824 55 12
4.0042639 1.5655711 -0.23761432 32 27
4.0352178 1.3097799 -0.39687407 40 16
4.0351505 1.5768571 -0.17931607 39 34
4.0498085 1.3137366 -0.33890629 49 20
4.0681534 1.3196902 -0.28092453 47 24
4.0909514 1.3255109 -0.22273089 43 28
4.1127586 1.3317863 -0.16393609 43 36
3.9323535 1.5342394 -0.40960625 30 15
4.1337929 1.3378034 -0.10455128 42 44
3.9654143 1.5463649 -0.35363969 41 19
4.1585732 1.3458263 -0.043882672 45 52
4.1594968 1.359773 0.015906895 34 60
4.1683865 1.3626804 0.076677062 49 68
4.0770798 1.4661303 -0.17181741 49 35
4.0789428 1.466801 -0.11181124 42 43
4.1176243 1.0673188 -0.32378599 51 21
4.1362829 1.0713773 -0.26580688 42 25
4.1252012 0.81315166 -0.42269889 50 14
4.1443114 1.0734535 -0.20687124 44 30
4.1503506 0.81733346 -0.36546227 33 18
4.1662469 1.0783508 -0.14827664 49 38
4.1583986 1.2071116 -0.096693277 37 45
4.0553007 1.0481685 -0.52089661 44 9
4.1835136 1.213607 -0.03694528 65 53
4.0839477 1.0555612 -0.43881285 44 13
4.0993133 1.0587633 -0.38128424 46 17
4.009119 1.1615226 -0.55578214 53 8
4.0877261 0.92545539 -0.49914739 34 10
4.126883 1.1925026 -0.21503603 40 29
4.143796 1.1973876 -0.15534265 40 37
4.1300597 1.4608252 -0.052325185 51 51
3.9920018 1.5455226 -0.29607359 31 23
4.0149412 1.2884939 -0.45340824 54 12
4.014359 1.5533886 -0.23789255 38 27
4.0350251 1.2941654 -0.39640439 47 16
4.0406299 1.5627621 -0.17931607 99 34
4.054369 1.2995921 -0.33890629 39 20
4.0727348 1.3054817 -0.28092453 39 24
4.0955534 1.3112227 -0.22273089 42 28
4.1173825 1.317422 -0.16393609 34 36
3.9330442 1.518708 -0.40911919 36 15
4.1336765 1.3218424 -0.10442998 40 44
3.970788 1.5325135 -0.35363969 43 19
4.1584835 1.3297784 -0.043832056 35 52
4.1642179 1.3452455 0.015906895 13 60
4.1683607 1.3465844 0.076588929 38 68
4.0774665 1.4502137 -0.17161763 32 35
4.0840383 1.4525539 -0.11181124 25 43
4.121325 1.0529391 -0.32378599 41 21
4.1399975 1.0569324 -0.26580688 41 25
4.1328988 0.79968762 -0.42320329 46 14
4.1528726 1.0602144 -0.20711462 44 30
4.1482868 0.80189997 -0.3650282 40 18
4.1941972 1.0699682 -0.14914477 52 38
4.1625872 1.1925887 -0.096693277 32 45
4.0589347 1.0340066 -0.52089661 50 9
4.1877246 1.1989965 -0.03694528 38 53
4.082788 1.0400734 -0.43829107 49 13
4.102984 1.0444475 -0.38128424 42 17
4.0083847 1.1461594 -0.55511653 49 8
4.0909319 0.91118091 -0.49914739 44 10
4.1310205 1.1780897 -0.21503603 36 29
4.1431456 1.181546 -0.15516119 31 37
4.1351333 1.4463997 -0.052325185 37 51
3.9927161 1.529791 -0.29572564 34 23
4.0194139 1.2744713 -0.45340824 35 12
4.0197568 1.5393664 -0.23789255 33 27
4.0347729 1.2785683 -0.3959347 44 16
4.0460606 1.5486484 -0.17931607 41 34
4.0541301 1.2839265 -0.33850613 35 20
4.0772676 1.2912573 -0.28092453 20 24
4.1001058 1.2969184 -0.22273089 33 28
4.1267195 1.3045483 -0.16412717 28 36
3.9476166 1.5085287 -0.41009331 35 15
4.1382656 1.3074052 -0.10442998 14 44
3.9761131 1.5186435 -0.35363969 35 19
4.1630998 1.3152546 -0.043832056 32 52
4.1688881 1.3307014 0.015906895 17 60
4.1635113 1.3289844 0.076412663 42 68
4.0777912 1.4343125 -0.17141783 23 35
4.0890837 1.438289 -0.11181124 29 43
4.1201406 1.0373312 -0.32340324 37 21
4.1436615 1.0424746 -0.26580688 34 25
4.1356649 0.78525633 -0.42320329 52 14
4.156548 1.0457116 -0.20711462 36 30
4.1608496 0.78926271 -0.36589628 56 18
4.1736736 1.0492387 -0.14827664 49 38
4.1619143 1.176692 -0.096580707 32 45
4.0577073 1.018626 -0.52027428 48 9
4.0863938 1.0258155 -0.43829107 45 13
4.1066046 1.0301191 -0.38128424 29 17
4.012361 1.1321605 -0.55511653 48 8
4.0989375 0.89795458 -0.49974376 43 10
4.1303 1.1623106 -0.21478394 34 29
4.147244 1.1670766 -0.15516119 23 37
4.1354327 1.4303206 -0.052264974 45 51
3.9980319 1.5158446 -0.29572564 32 23
4.0190949 1.2589465 -0.45286909 31 12
4.0204387 1.5235534 -0.23761432 33 27
4.0439615 1.2659643 -0.39640439 17 16
4.0514417 1.5345155 -0.17931607 48 34
4.0633435 1.2712557 -0.33890629 40 20
4.0769887 1.2755266 -0.28059402 13 24
4.1046076 1.2825985 -0.22273089 14 28
4.1312485 1.2901354 -0.16412717 14 36
3.9575112 1.4965026 -0.41058034 28 15
4.1428041 1.2929521 -0.10442998 17 44
3.98139 1.504755 -0.35363969 37 19
4.167666 1.3007146 -0.043832056 28 52
4.1735082 1.3161412 0.015906895 20 60
4.087491 1.4217125 -0.17161763 28 35
4.1035199 1.4272944 -0.11207126 29 43
4.1237364 1.0229429 -0.32340324 32 21
4.1472754 1.0280043 -0.26580688 29 25
4.1383815 0.77081537 -0.42320329 53 14
4.1553249 1.0299964 -0.20687124 17 30
4.1537848 0.77292013 -0.3650282 47 18
4.1659961 1.1621569 -0.096580707 25 45
4.0660548 1.0056449 -0.52089661 41 9
4.0899496 1.0115449 -0.43829107 38 13
4.1101756 1.0157781 -0.38128424 23 17
4.0162888 1.1181481 -0.55511653 45 8
4.0971932 0.88259882 -0.49914739 50 10
4.1343322 1.1478859 -0.21478394 17 29
4.1561069 1.1539288 -0.15534265 25 37
4.1404004 1.4158765 -0.052264974 44 51
4.007967 1.5036345 -0.29607359 27 23
4.028214 1.2463797 -0.45340824 36 12
4.1551299 1.4201094 0.008360994 28 59
4.025732 1.5095102 -0.23761432 37 27
4.0531116 1.2533118 -0.39687407 20 16
4.0567737 1.5203638 -0.17931607 47 34
4.0677567 1.2570642 -0.33890629 25 20
4.0861831 1.2627612 -0.28092453 14 24
4.1042886 1.2667898 -0.22247007 20 28
4.1309524 1.2742335 -0.16393609 25 36
3.9627111 1.4826792 -0.41058034 26 15
4.1425152 1.27701 -0.10430869 23 44
3.9866183 1.4908483 -0.35363969 26 19
4.1721807 1.2861588 -0.043832056 31 52
4.1780767 1.3015649 0.015906895 20 60
4.0877056 1.4058094 -0.17141783 29 35
4.1084776 1.4129617 -0.11207126 32 43
4.1321254 1.0097237 -0.32378599 25 21
4.1459899 1.0123396 -0.26549381 20 25
4.1361523 0.75547558 -0.42269889 53 14
4.158895 1.0154854 -0.20687124 17 30
4.1662583 0.76019549 -0.36589628 42 18
4.179667 1.1502593 -0.096805833 27 45
4.06954 0.9914456 -0.52089661 23 9
4.0934553 0.99726224 -0.43829107 31 13
4.1136961 1.0014247 -0.38128424 35 17
4.0249457 1.1054335 -0.55578214 41 8
4.1002493 0.86829162 -0.49914739 49 10
4.1383142 1.1334475 -0.21478394 23 29
4.1697493 1.142053 -0.15570562 36 37
4.1453176 1.4014151 -0.052264974 44 51
4.0131917 1.4896348 -0.29607359 33 23
4.0325398 1.2323109 -0.45340824 25 12
4.1600618 1.4055969 0.008360994 36 59
4.0356565 1.497188 -0.23789255 35 27
4.052701 1.2377015 -0.39640439 17 16
4.0620561 1.5061939 -0.17931607 46 34
4.0721197 1.2428576 -0.33890629 28 20
4.0640101 1.5069199 -0.11931343 98 42
4.0905657 1.2484901 -0.28092453 25 24
4.1086855 1.2524554 -0.22247007 28 28
4.1305957 1.2583493 -0.16374503 32 36
3.9725277 1.4705683 -0.4110674 31 15
4.1469474 1.262542 -0.10430869 29 44
3.99647 1.4786551 -0.35405719 30 19
4.1718612 1.2701305 -0.043781441 39 52
4.1778164 1.2855018 0.01588857 25 60
4.0973167 1.3931421 -0.17161763 34 35
4.1086521 1.397001 -0.11194125 35 43
4.1307774 0.99412918 -0.32340324 25 21
4.1494985 0.99786115 -0.26549381 25 25
4.1387644 0.74103314 -0.42269889 54 14
4.1624146 1.0009619 -0.20687124 25 30
4.1691837 1.1317358 -0.096468136 30 45
4.0681515 0.97607869 -0.52027428 20 9
4.0920753 0.98180902 -0.43776929 29 13
4.1123247 0.98590016 -0.38083196 28 17
4.0287795 1.0913771 -0.55578214 32 8
4.1032553 0.85397381 -0.49914739 25 10
4.1374245 1.1176935 -0.21453187 31 29
4.1592383 1.1235834 -0.15516119 47 37
4.145443 1.3853505 -0.052204762 51 51
4.0183668 1.4756171 -0.29607359 37 23
4.0415754 1.219664 -0.45394737 28 12
4.1554589 1.3878953 0.0083417958 33 59
4.0361724 1.4813687 -0.23761432 37 27
4.0617623 1.2249854 -0.39687407 25 16
4.0672889 1.4920055 -0.17931607 44 34
4.0764332 1.2286357 -0.33890629 37 20
4.055172 1.487552 -0.11889723 36 42
4.0948987 1.2342038 -0.28092453 30 24
4.1130323 1.2381058 -0.22247007 34 28
4.134963 1.2439231 -0.16374503 46 36
3.9776368 1.4566926 -0.4110674 41 15
4.1513295 1.2480588 -0.10430869 41 44
4.0016069 1.4646959 -0.35405719 36 19
4.1762695 1.2555602 -0.043781441 46 52
4.1870613 1.272365 0.015906895 29 60
4.1021552 1.3788313 -0.17161763 42 35
4.1135039 1.3826506 -0.11194125 39 43
4.1390738 0.98085171 -0.32378599 30 21
4.1529565 0.98337054 -0.26549381 32 25
4.136426 0.72572637 -0.42219448 56 14
4.1658831 0.98642623 -0.20687124 28 30
4.1827664 1.1197598 -0.096693277 30 45
4.0811911 0.96414983 -0.52151901 29 9
4.0954771 0.96751904 -0.43776929 36 13
4.1205869 0.97268152 -0.38128424 29 17
4.0277772 1.0760289 -0.55511653 41 8
4.0964823 0.83766264 -0.49795467 25 10
4.1461258 1.1045293 -0.21478394 42 29
4.167963 1.1103437 -0.15534265 51 37
4.1502538 1.3708718 -0.052204762 46 51
4.0188065 1.4598756 -0.29572564 41 23
4.0458088 1.2055489 -0.45394737 33 12
4.1650257 1.3749508 0.0083513949 34 59
4.0413184 1.4672707 -0.23761432 40 27
4.0660138 1.2107997 -0.39687407 29 16
4.1834993 1.3810569 0.069403589 14 67
4.0724721 1.4777989 -0.17931607 43 34
4.0806966 1.2143987 -0.33890629 34 20
4.0791287 1.4802191 -0.11945218 44 42
4.0991821 1.2199024 -0.28092453 41 24
4.1173291 1.2237411 -0.22247007 43 28
4.1392798 1.2294818 -0.16374503 45 36
3.987375 1.4444971 -0.41155446 45 15
4.1556606 1.2335603 -0.10430869 43 44
4.0066953 1.4507188 -0.35405719 40 19
4.1806269 1.2409745 -0.043781441 47 52
4.1069431 1.3645036 -0.17161763 44 35
4.1183052 1.3682833 -0.11194125 42 43
4.0962324 1.4953457 -0.059632249 34 50
4.0194159 1.6019896 -0.18659696 10 33
4.1376171 0.96526688 -0.32340324 37 21
4.1515036 0.96773708 -0.26518074 41 25
4.1389332 0.71128315 -0.42219448 51 14
4.1644363 0.9707467 -0.20662786 30 30
4.0845318 0.94989794 -0.52151901 31 9
4.0988297 0.95321727 -0.43776929 36 13
4.1191068 0.95716691 -0.38083196 32 17
4.0363007 1.0632243 -0.55578214 50 8
4.109117 0.82530707 -0.49914739 28 10
4.1499567 1.09005 -0.21478394 40 29
4.1718135 1.0957882 -0.15534265 43 37
4.1550136 1.3563763 -0.052204762 45 51
4.0238776 1.4458385 -0.29572564 45 23
4.0452232 1.1900156 -0.45340824 39 12
4.1698003 1.3604039 0.0083513949 42 59
4.0464158 1.453155 -0.23761432 42 27
4.0702157 1.1965994 -0.39687407 36 16
4.1977997 1.3695502 0.069562413 53 67
4.0729051 1.4618839 -0.17910758 37 34
4.0849109 1.2001472 -0.33890629 36 20
4.0748644 1.4625887 -0.11917471 42 42
4.0986285 1.2041793 -0.28059402 46 24
4.1215754 1.2093614 -0.22247007 43 28
4.138752 1.2136191 -0.16355395 46 36
3.9830263 1.4272066 -0.41058034 50 15
4.1599412 1.219047 -0.10430869 41 44
4.0070453 1.4350412 -0.35363969 45 19
4.1849332 1.226374 -0.043781441 48 52
4.1069355 1.3485991 -0.17141783 46 35
4.1230564 1.3538994 -0.11194125 38 43
4.1108303 1.4844401 -0.059770133 98 50
4.0249834 1.5879494 -0.18659696 112 33
4.1409612 0.950818 -0.32340324 43 21
4.1548562 0.95323974 -0.26518074 50 25
4.1364841 0.69601011 -0.42169005 45 14
4.0829864 0.9345293 -0.52089661 36 9
4.1021323 0.93890381 -0.43776929 43 13
4.1224232 0.94278276 -0.38083196 38 17
4.0351911 1.0478836 -0.55511653 53 8
4.1119728 0.81095856 -0.49914739 32 10
4.1489019 1.0743061 -0.21453187 50 29
4.1707759 1.0799673 -0.15516119 68 37
4.1597233 1.3418643 -0.052204762 50 51
4.0289001 1.4317836 -0.29572564 40 23
4.0493526 1.1758877 -0.45340824 54 12
4.1650062 1.3427682 0.0083321957 17 59
4.0514636 1.4390215 -0.23761432 43 27
4.0695868 1.1809962 -0.39640439 44 16
4.1835241 1.3487457 0.06924478 42 67
4.0779834 1.4476578 -0.17910758 35 34
4.0890756 1.1858807 -0.33890629 41 20
4.0752358 1.4466805 -0.11903597 34 42
4.102807 1.1898649 -0.28059402 44 24
4.1257725 1.194967 -0.22247007 42 28
4.1429629 1.1991647 -0.16355395 47 36
3.9832947 1.4116296 -0.41009331 40 15
4.1641717 1.2045186 -0.10430869 32 44
4.0026393 1.4177122 -0.35280463 39 19
4.1843863 1.2103685 -0.043730825 46 52
4.1116171 1.3342551 -0.17141783 44 35
4.1277571 1.3394991 -0.11194125 41 43
4.1065726 1.4667125 -0.059632249 96 50
4.0258503 1.5720689 -0.18637973 32 33
4.1442547 0.93635762 -0.32340324 50 21
4.1532907 0.93763375 -0.26486766 53 25
4.0862236 0.92027134 -0.52089661 43 9
4.1053848 0.92457896 -0.43776929 48 13
4.1256886 0.92838705 -0.38083196 50 17
4.0388246 1.0337919 -0.55511653 44 8
4.1147785 0.7966001 -0.49914739 39 10
4.1526265 1.0598172 -0.21453187 37 29
4.1745205 1.0654019 -0.15516119 65 37
4.1596184 1.3258158 -0.05214455 38 51
4.0291686 1.4160545 -0.29537773 39 23
4.0486536 1.1603755 -0.45286909 50 12
4.1696682 1.3282214 0.0083321957 17 59
4.051753 1.423213 -0.23733607 27 27
4.0736847 1.1667836 -0.39640439 46 16
4.1834435 1.3326151 0.069165364 58 67
4.0782986 1.4317565 -0.17889906 28 34
4.0883989 1.170228 -0.33850613 45 20
4.0802608 1.4324466 -0.11903597 17 42
4.1069355 1.1755363 -0.28059402 43 24
4.1299181 1.1805582 -0.22247007 39 28
4.1471233 1.1846958 -0.16355395 43 36
3.9788072 1.3944188 -0.40911919 36 15
4.1635442 1.1886028 -0.10418741 37 44
4.0028615 1.4020815 -0.3523871 40 19
4.1885853 1.1957549 -0.043730825 41 52
4.11625 1.3198947 -0.17141783 40 35
4.1324081 1.3250824 -0.11194125 29 43
4.1210933 1.4557052 -0.059770133 43 50
4.1450496 1.4641837 0.00076096354 5 58
4.0406284 1.5616161 -0.18681417 40 33
4.1426306 0.92080569 -0.32302052 52 21
4.1662817 0.92529035 -0.26549381 55 25
4.0942554 0.90707344 -0.52151901 53 9
4.1085873 0.91024286 -0.43776929 48 13
4.124042 0.91290569 -0.38037968 46 17
4.0376029 1.0184759 -0.55445093 49 8
4.1224117 0.78315544 -0.49974376 55 10
4.1563005 1.0453154 -0.21453187 40 29
4.173368 1.0496055 -0.15497972 39 37
4.1642208 1.3112881 -0.05214455 28 51
4.0387979 1.403622 -0.29572564 34 23
4.0574632 1.1475896 -0.45340824 54 12
4.1742787 1.3136585 0.0083321957 14 59
4.0614109 1.4107022 -0.23761432 26 27
4.0777326 1.1525567 -0.39640439 31 16
4.1880698 1.318004 0.069165364 42 67
4.083272 1.4175118 -0.17889906 34 34
4.0924587 1.1559497 -0.33850613 33 20
4.0946774 1.4214792 -0.11931343 18 42
4.1110139 1.1611933 -0.28059402 38 24
4.129209 1.1647787 -0.22220926 17 28
4.1512337 1.1702124 -0.16355395 31 36
3.9930525 1.3837867 -0.41009331 34 15
4.1628571 1.1727064 -0.10406612 13 44
4.0171456 1.3913678 -0.35322216 35 19
4.1927338 1.1811268 -0.043730825 42 52
3.939755 1.5091057 -0.47658613 92 11
4.1255941 1.3070288 -0.17161763 33 35
4.1322436 1.3091382 -0.11181124 28 43
4.1261497 1.441311 -0.059770133 44 50
4.1454158 1.4480541 0.00076009089 110 58
4.0413918 1.5457138 -0.18659696 50 33
4.0760994 1.5590229 -0.12770005 28 41
4.1458197 0.9063397 -0.32302052 42 21
4.1548595 0.9075526 -0.26455456 50 25
4.0973964 0.89277643 -0.52151901 50 9
4.1117392 0.89589578 -0.43776929 49 13
4.127203 0.8985045 -0.38037968 41 17
4.0411334 1.0043759 -0.55445093 46 8
4.1202393 0.76785433 -0.49914739 52 10
4.159924 1.0308008 -0.21453187 17 29
4.1687727 1.2967441 -0.05214455 28 51
4.0389562 1.3878914 -0.29537773 23 23
4.0614443 1.1334194 -0.45340824 31 12
4.1788392 1.2990795 0.0083321957 14 59
4.0568695 1.3932675 -0.23705783 32 27
4.0817308 1.1383156 -0.39640439 17 16
4.0881944 1.4032497 -0.17889906 32 34
4.0964684 1.1416571 -0.33850613 30 20
4.0996137 1.4071773 -0.11931343 21 42
4.1150417 1.1468359 -0.28059402 17 24
4.1332493 1.1503581 -0.22220926 22 28
4.1456666 1.153036 -0.16317183 29 36
3.9978585 1.3698399 -0.41009331 31 15
4.171741 1.1595072 -0.10418741 17 44
4.026691 1.3789541 -0.35363969 23 19
3.9496419 1.4971088 -0.47715211 97 11
4.1253638 1.2911258 -0.17141783 27 35
4.1367884 1.2947059 -0.11181124 18 43
4.1311555 1.4268992 -0.059770133 42 50
4.15517 1.4352103 0.00076096354 69 58
4.0420923 1.529825 -0.18637973 55 33
4.0721707 1.5412388 -0.12740512 100 41
4.1489582 0.89186257 -0.32302052 40 21
4.1677604 0.89513594 -0.26518074 48 25
4.0907845 0.87639344 -0.52027428 49 9
4.1148415 0.88153762 -0.43776929 46 13
4.1303148 0.88409245 -0.38037968 31 17
4.0494285 0.99144155 -0.55511653 45 8
4.1326623 0.75524598 -0.50034004 46 10
4.163497 1.0162737 -0.21453187 14 29
